ply
format ascii 1.0
element vertex 1284
property float x
property float y
property float z
property uchar red
property uchar green
property uchar blue
end_header
-12.9736 47.3301 -83.2419 255 255 255
-13.5865 46.7213 -81.2219 255 255 255
57.9034 5.02792 -10.0886 255 255 255
-14.4493 -2.50464 32.1851 255 255 255
60.8607 -0.65048 -6.34191 255 255 255
75.9879 -10.1589 13.832 255 255 255
-22.8423 0.727062 10.0977 255 255 255
-21.1172 -0.277992 11.7437 255 255 255
71.778 -15.9016 11.3537 255 255 255
71.6602 -15.927 11.4652 255 255 255
71.9295 -19.7288 8.8408 255 255 255
-21.7788 -9.46743 27.9105 255 255 255
-20.8927 -10.433 29.2481 255 255 255
24.5319 -22.9454 34.9082 255 255 255
77.3409 -28.3159 11.0602 255 255 255
79.9226 -26.8153 1.65388 255 255 255
-32.0697 -17.9707 25.2946 255 255 255
-29.2462 -22.3312 29.1311 255 255 255
-30.6339 -21.541 25.9881 255 255 255
-7.74547 -34.3184 41.0841 255 255 255
11.8906 -37.8589 34.5215 255 255 255
-43.603 -15.4544 -18.1982 255 255 255
6.77363 -38.9576 37.1331 255 255 255
-7.13363 -36.5565 40.6266 255 255 255
-29.634 -27.6321 20.0733 255 255 255
-32.1741 -27.1771 16.3411 255 255 255
-57.8389 -16.6809 -17.1684 255 255 255
-23.1295 -32.7671 30.5378 255 255 255
-10.9509 -38.1576 35.5273 255 255 255
-2.7541 -41.4019 35.455 255 255 255
-19.9878 -39.2111 31.4989 255 255 255
-53.0865 -28.3534 -3.11465 255 255 255
-52.2367 -31.3098 1.37566 255 255 255
16.815 -54.0199 32.9388 255 255 255
2.56691 -51.4324 34.3404 255 255 255
7.31353 -58.6303 37.382 255 255 255
7.31353 -58.6303 37.382 255 255 255
57.333 45.5057 16.5249 255 255 255
-8.13114 91.6329 -56.1348 255 255 255
33.4751 102.055 -76.5982 255 255 255
29.7141 101.192 -75.2481 255 255 255
7.73172 93.8597 -64.242 255 255 255
32.7158 97.6871 -77.8935 255 255 255
32.496 97.4475 -77.3774 255 255 255
65.8575 28.4612 27.9469 255 255 255
105.273 109.032 -112.614 255 255 255
-17.2616 80.5498 -59.1167 255 255 255
-23.0604 77.6275 -56.8138 255 255 255
58.5267 49.3682 -28.3876 255 255 255
70.5376 90.5502 -107.176 255 255 255
-3.74048 73.9577 -71.2682 255 255 255
67.4423 38.0562 -16.7109 255 255 255
68.2539 35.9595 -15.2273 255 255 255
27.5158 74.087 -93.0047 255 255 255
-22.6775 61.7223 -69.5489 255 255 255
65.7573 0.170179 24.2736 255 255 255
70.218 1.17495 20.6294 255 255 255
73.598 -5.92359 25.1481 255 255 255
-9.33954 48.32 -90.0403 255 255 255
68.4046 -5.19805 11.1054 255 255 255
-2.02383 -11.0815 39.6913 255 255 255
114.701 -14.6971 -10.8915 255 255 255
-20.252 -9.60565 32.1807 255 255 255
-25.1282 -4.58082 16.9325 255 255 255
-5.4041 -17.4481 39.5481 255 255 255
73.1835 -24.0196 9.1256 255 255 255
73.8395 -30.7783 6.78326 255 255 255
75.7625 -33.3293 10.2319 255 255 255
-33.3235 -15.7553 24.1559 255 255 255
-17.9034 -30.8917 39.6834 255 255 255
3.75643 -37.9331 37.7536 255 255 255
10.5762 -39.6037 34.5172 255 255 255
-8.13723 -42.1817 35.2702 255 255 255
-18.979 -39.6103 31.8351 255 255 255
-19.0014 -39.5866 31.943 255 255 255
-19.3889 -42.1599 30.8438 255 255 255
21.3663 -53.6708 32.553 255 255 255
17.8997 -54.1198 34.5094 255 255 255
-44.4844 -36.4367 10.6903 255 255 255
-37.3089 -46.2231 23.4552 255 255 255
-8.03042 98.1866 -52.506 255 255 255
59.9912 66.8867 -13.4884 255 255 255
64.8188 47.2893 -1.60595 255 255 255
32.4664 86.8111 -85.9148 255 255 255
32.4313 86.7435 -85.8019 255 255 255
74.329 88.9592 -112.946 255 255 255
-78.7988 59.9161 -32.5739 255 255 255
33.5034 79.7422 -93.0528 255 255 255
36.9299 77.6962 -95.4518 255 255 255
-3.27579 60.309 -79.4865 255 255 255
-10.1436 5.67185 26.5657 255 255 255
-14.4873 49.3214 -81.3789 255 255 255
-2.19777 49.9872 -92.398 255 255 255
-16.3007 -7.5298 33.5065 255 255 255
69.6639 -12.6156 7.03267 255 255 255
-27.8871 -21.2443 33.2261 255 255 255
-18.375 -26.6122 40.8072 255 255 255
-29.4698 -27.5549 24.886 255 255 255
-19.5876 -32.7979 35.337 255 255 255
-17.1356 -35.1344 35.5002 255 255 255
-24.2288 -33.4301 29.4597 255 255 255
-0.503928 -49.1488 35.3491 255 255 255
17.8222 109.585 -59.7223 255 255 255
-2.41818 102.826 -50.3534 255 255 255
-7.84378 100.128 -48.8604 255 255 255
22.3606 94.1782 -71.1665 255 255 255
24.0294 96.6141 -75.0228 255 255 255
76.7053 79.8278 -116.859 255 255 255
65.268 32.0871 -24.1946 255 255 255
9.54483 58.3693 -92.5963 255 255 255
-6.84996 -2.76846 35.5773 255 255 255
-28.2269 -25.7884 26.5194 255 255 255
14.2062 -50.1397 31.3533 255 255 255
14.2062 -50.1397 31.3533 255 255 255
23.8667 109.613 -63.9566 255 255 255
4.11398 103.216 -55.4591 255 255 255
4.10997 103.203 -55.446 255 255 255
-33.6222 88.641 -39.5338 255 255 255
27.1265 106.206 -70.5095 255 255 255
62.7333 53.7309 3.48754 255 255 255
3.48536 89.0727 -64.2443 255 255 255
3.49424 84.2394 -69.2428 255 255 255
3.3747 84.1194 -68.8718 255 255 255
-30.7329 -19.5038 27.7324 255 255 255
-1.84477 -37.0072 39.0416 255 255 255
-5.40495 -39.1152 37.3863 255 255 255
7.35918 -47.2399 38.0922 255 255 255
4.78298 99.921 -61.6086 255 255 255
62.005 64.2934 -11.8653 255 255 255
63.2825 53.2682 -15.5084 255 255 255
25.1625 85.5688 -85.3438 255 255 255
-19.7016 72.2676 -63.8597 255 255 255
50.0716 71.5074 -109.631 255 255 255
65.3276 72.0158 -117.889 255 255 255
4.8371 58.0479 -95.2749 255 255 255
2.95589 50.4442 -92.9285 255 255 255
-27.6674 45.9954 -77.371 255 255 255
-21.7 -10.2624 27.9833 255 255 255
-26.8592 -10.1141 24.5522 255 255 255
-31.0337 -16.5239 28.1697 255 255 255
7.70964 -44.3817 36.6765 255 255 255
66.1873 97.085 -102.792 255 255 255
-23.0794 57.275 -69.4049 255 255 255
-8.55303 49.551 -85.4257 255 255 255
-8.32859 50.3653 -87.4376 255 255 255
-12.9953 60.9303 -75.2279 255 255 255
16.7456 85.2336 -83.9456 255 255 255
-20.5978 138.66 -49.6971 255 255 255
24.3828 154.549 -65.7177 255 255 255
22.1973 153.706 -65.8049 255 255 255
24.742 153.755 -66.4268 255 255 255
23.095 153.18 -67.1322 255 255 255
22.3799 151.188 -67.9309 255 255 255
132.461 252.717 -202.854 255 255 255
23.4562 136.567 -68.4425 255 255 255
-24.6743 108.394 -46.9024 255 255 255
49.6189 118.619 -70.9408 255 255 255
36.2793 113.749 -68.1703 255 255 255
14.9642 107.513 -59.1053 255 255 255
-2.89637 99.399 -53.5683 255 255 255
56.9985 72.6 -16.1116 255 255 255
-8.29751 97.8271 -51.3513 255 255 255
62.2284 65.2424 -5.76951 255 255 255
-0.943846 97.575 -55.9662 255 255 255
56.3422 46.8107 18.306 255 255 255
12.8047 100.624 -61.9568 255 255 255
65.1373 60.4659 -3.47835 255 255 255
59.8681 43.8434 21.9936 255 255 255
57.2729 69.7135 -19.098 255 255 255
109.276 122.927 -105.438 255 255 255
53.399 113.021 -88.7717 255 255 255
56.5849 44.8196 13.4566 255 255 255
-12.4918 90.5706 -53.9796 255 255 255
58.6986 108.198 -86.1712 255 255 255
62.7274 36.3046 25.8949 255 255 255
-57.7266 78.7833 -33.1675 255 255 255
48.0227 104.728 -81.9266 255 255 255
57.8053 65.2301 -20.3774 255 255 255
45.9351 104.452 -81.6445 255 255 255
-56.1657 78.0665 -34.4809 255 255 255
60.0541 61.208 -17.2594 255 255 255
59.4858 38.1499 19.032 255 255 255
52.8584 103.689 -85.5888 255 255 255
33.2654 99.0216 -77.4572 255 255 255
-29.6387 83.3158 -48.1134 255 255 255
64.2874 54.634 -10.1133 255 255 255
64.2874 54.634 -10.1133 255 255 255
-2.82684 88.1461 -61.9498 255 255 255
57.3717 38.599 13.5772 255 255 255
59.3697 36.7657 16.197 255 255 255
39.2588 97.7708 -82.0362 255 255 255
59.555 57.6051 -21.037 255 255 255
61.5532 32.0548 19.5646 255 255 255
-52.2762 74.26 -39.6716 255 255 255
29.0203 92.5187 -79.653 255 255 255
40.1196 94.5123 -84.5847 255 255 255
32.9786 92.3752 -81.3849 255 255 255
62.4246 51.302 -17.1419 255 255 255
-45.1388 73.7078 -45.0116 255 255 255
-45.1583 73.7495 -44.9331 255 255 255
72.6047 97.2128 -102.449 255 255 255
61.5922 28.3369 16.8268 255 255 255
-29.8233 75.1451 -54.2127 255 255 255
65.728 22.2634 24.5084 255 255 255
23.1133 85.1514 -81.0295 255 255 255
66.2106 42.5964 -12.2726 255 255 255
66.1717 21.1278 24.1938 255 255 255
3.72556 80.2141 -72.4426 255 255 255
-25.0655 73.9666 -57.7043 255 255 255
64.6174 44.1189 -17.3746 255 255 255
103.298 99.0096 -121.567 255 255 255
78.963 91.8816 -110.472 255 255 255
51.0454 87.1662 -98.1497 255 255 255
62.9899 22.3877 16.7717 255 255 255
13.2322 78.1257 -79.5074 255 255 255
61.2775 23.4581 13.1449 255 255 255
60.8168 23.2165 13.5819 255 255 255
66.3185 37.1459 -14.2161 255 255 255
59.0634 45.8936 -29.9864 255 255 255
52.2383 83.242 -101.069 255 255 255
63.9949 18.2913 15.9387 255 255 255
58.5638 22.3886 4.83355 255 255 255
61.5839 37.8739 -28.0569 255 255 255
62.4226 36.7241 -26.6146 255 255 255
65.6651 11.8185 16.4586 255 255 255
63.193 32.4603 -27.282 255 255 255
59.3727 36.7467 -35.6703 255 255 255
59.7471 36.9635 -36.1637 255 255 255
60.4638 15.7893 5.09772 255 255 255
54.2604 72.7734 -110.673 255 255 255
58.0198 17.144 -0.521645 255 255 255
29.2034 67.8544 -98.368 255 255 255
65.5146 26.3679 -22.8987 255 255 255
-21.9968 59.4175 -70.9104 255 255 255
60.2738 32.2891 -35.7058 255 255 255
60.6502 13.1395 3.77468 255 255 255
60.4374 13.4046 3.26587 255 255 255
63.5403 28.3714 -29.5924 255 255 255
59.7995 13.435 1.7663 255 255 255
59.738 13.4349 1.82265 255 255 255
65.9295 6.85254 13.4998 255 255 255
64.6063 7.09488 9.83581 255 255 255
42.0006 64.523 -107.577 255 255 255
69.3952 1.87008 18.3948 255 255 255
34.814 62.6801 -105.131 255 255 255
65.1659 23.1145 -29.1217 255 255 255
68.6742 0.414983 15.6575 255 255 255
-7.73329 55.4948 -83.5043 255 255 255
69.9164 -1.22515 17.7241 255 255 255
72.4106 -3.30723 21.3601 255 255 255
70.0458 -1.59761 18.1294 255 255 255
60.14 7.97774 -0.732568 255 255 255
60.0953 7.87511 -1.22631 255 255 255
68.5406 -0.550946 14.6018 255 255 255
62.0837 5.65103 2.24786 255 255 255
66.739 -0.0799236 11.1204 255 255 255
60.414 5.61821 -2.31078 255 255 255
68.7723 -2.96745 13.5422 255 255 255
65.8334 -0.386808 7.83254 255 255 255
65.8847 -0.669014 7.99309 255 255 255
63.6644 1.32107 3.27249 255 255 255
-6.4388 50.5679 -87.8547 255 255 255
-6.4388 50.5679 -87.8547 255 255 255
77.3868 -13.518 29.731 255 255 255
70.7852 -7.16636 16.2088 255 255 255
12.5713 50.5314 -100.341 255 255 255
-3.70902 48.7917 -90.7367 255 255 255
68.4473 -5.24767 11.1588 255 255 255
63.353 -0.149271 0.94992 255 255 255
63.3425 -0.143702 0.953603 255 255 255
66.8564 -3.38305 6.38839 255 255 255
78.664 -16.1247 30.8405 255 255 255
6.78752 48.0203 -97.8105 255 255 255
65.6296 -3.98698 4.65809 255 255 255
-13.3603 -2.97241 33.0915 255 255 255
-15.051 -2.24379 31.1896 255 255 255
67.3005 -6.16285 7.27573 255 255 255
65.5637 -4.69032 3.68049 255 255 255
69.1013 -8.49232 10.2932 255 255 255
78.7851 -18.2256 30.1158 255 255 255
70.0896 -9.53909 12.4046 255 255 255
69.2878 -8.91905 10.5415 255 255 255
-10.0802 -6.36332 37.0702 255 255 255
68.4703 -8.49048 8.54276 255 255 255
68.4687 -8.65868 8.16534 255 255 255
-2.11995 -9.4813 39.7001 255 255 255
66.876 -7.71306 4.87595 255 255 255
5.90355 -10.8047 38.5643 255 255 255
79.8692 -20.8724 31.184 255 255 255
70.7189 -11.714 11.5599 255 255 255
-83.8034 -24.2061 110.362 255 255 255
66.5777 -8.67774 3.51813 255 255 255
-20.128 -2.84092 26.3358 255 255 255
-18.1765 -4.62827 30.2334 255 255 255
67.6403 -10.1943 5.23992 255 255 255
70.9388 -13.266 11.3924 255 255 255
66.7743 -9.8713 2.99845 255 255 255
-1.12669 -12.6469 40.2132 255 255 255
66.1203 -10.1325 1.41283 255 255 255
-19.8026 2.91181 7.42918 255 255 255
74.9677 -23.9075 32.7621 255 255 255
66.0825 -10.1404 0.557649 255 255 255
-20.3347 -5.07287 27.6875 255 255 255
6.62147 -14.1548 38.601 255 255 255
67.7519 -12.5933 3.72937 255 255 255
69.1529 -13.9199 5.87637 255 255 255
69.5254 -14.4655 6.53566 255 255 255
66.6344 -11.9911 0.991029 255 255 255
68.4088 -14.8813 4.07974 255 255 255
-22.7749 -4.30687 21.4671 255 255 255
70.2999 -16.8328 6.75928 255 255 255
70.2862 -16.806 6.7375 255 255 255
-21.2272 -7.34418 27.6976 255 255 255
18.4606 -16.771 32.6771 255 255 255
68.4845 -15.8942 3.15155 255 255 255
68.8525 -16.2248 3.51863 255 255 255
-18.0347 -10.5462 32.8194 255 255 255
-25.0067 -3.85702 16.4815 255 255 255
67.5995 -16.7166 0.909491 255 255 255
-5.58744 -16.7938 39.6581 255 255 255
-13.2643 -14.4066 36.9346 255 255 255
25.9802 -20.3367 31.5176 255 255 255
-22.9451 -8.61579 24.738 255 255 255
3.50306 -18.8028 39.0514 255 255 255
-21.224 -10.8506 28.8961 255 255 255
69.6563 -20.8653 3.02241 255 255 255
72.5649 -23.5012 7.97193 255 255 255
21.8061 -22.0898 34.0366 255 255 255
23.4054 -22.793 34.9483 255 255 255
-9.39445 -18.398 38.4617 255 255 255
-15.3189 -16.3082 35.5146 255 255 255
74.2287 -27.1148 8.90428 255 255 255
67.1456 -21.1783 -4.4647 255 255 255
-11.5097 -18.576 37.405 255 255 255
-83.236 -27.236 107.52 255 255 255
-19.9675 -17.6145 34.4407 255 255 255
11.7648 -26.3689 39.7452 255 255 255
-17.5058 -20.0314 37.462 255 255 255
70.6114 -28.3035 -0.541786 255 255 255
70.7914 -28.3218 -0.687278 255 255 255
-20.0923 -19.3803 35.3091 255 255 255
-22.6853 -18.3615 33.1748 255 255 255
-0.317107 -25.8177 40.7125 255 255 255
-84.0223 -27.8216 107.525 255 255 255
80.5478 -37.8432 19.6186 255 255 255
-33.6675 -10.4308 12.3465 255 255 255
-10.4689 -23.7207 39.9663 255 255 255
-16.5474 -22.1489 37.7795 255 255 255
-3.33937 -26.0888 40.3961 255 255 255
-30.2329 -16.1148 26.4591 255 255 255
-9.92627 -24.9267 39.7231 255 255 255
-9.53102 -25.1616 39.8734 255 255 255
-39.3598 5.6277 -45.3562 255 255 255
-12.1425 -24.5976 39.08 255 255 255
1.80836 -29.1822 43.3531 255 255 255
-29.2545 -18.4641 29.7676 255 255 255
78.2465 -38.4554 10.8121 255 255 255
-32.4811 -16.8294 24.7441 255 255 255
-28.1919 -20.9222 33.2552 255 255 255
-6.54592 -28.7117 42.9057 255 255 255
-27.9859 -21.1888 33.6565 255 255 255
-27.9958 -21.3986 33.9262 255 255 255
-27.7791 -21.3353 33.5197 255 255 255
4.28711 -31.493 42.8459 255 255 255
-17.4527 -25.7582 39.2466 255 255 255
-18.9327 -26.6115 40.3848 255 255 255
-18.6132 -27.2587 40.9175 255 255 255
-14.4147 -29.7654 40.8703 255 255 255
-33.0451 -20.0908 20.4372 255 255 255
-16.8338 -29.2484 39.9018 255 255 255
-45.5536 -4.80942 -32.2063 255 255 255
54.985 -42.0379 15.3144 255 255 255
-2.87176 -34.1277 40.9572 255 255 255
4.89009 -35.9911 39.4288 255 255 255
-47.971 -6.67479 -29.8509 255 255 255
-45.467 -7.85009 -28.2284 255 255 255
4.19953 -36.2577 39.0778 255 255 255
-30.949 -23.5524 23.3624 255 255 255
-22.7538 -28.7636 34.2307 255 255 255
-13.0804 -33.175 38.7395 255 255 255
-14.2288 -32.863 38.3281 255 255 255
1.5704 -37.7931 37.923 255 255 255
-11.4609 -34.9412 37.5998 255 255 255
-22.0358 -32.09 32.3623 255 255 255
-25.1742 -30.9929 29.5257 255 255 255
-24.9393 -31.3358 29.5514 255 255 255
-9.75459 -37.3538 37.2 255 255 255
-25.6828 -32.2873 27.9852 255 255 255
-11.3213 -37.9616 36.0761 255 255 255
-6.70679 249.535 -163.721 255 255 255
24.2902 154.738 -64.4925 255 255 255
23.1116 154.222 -66.5703 255 255 255
-21.27 135.471 -52.747 255 255 255
24.5466 150.312 -69.5218 255 255 255
-16.2423 133.532 -54.9693 255 255 255
-21.0619 131.636 -55.0339 255 255 255
4.90886 130.96 -54.0585 255 255 255
23.0703 144.193 -71.125 255 255 255
-19.9218 129.902 -55.8419 255 255 255
123.371 251.841 -204.476 255 255 255
-12.0131 124.866 -52.5037 255 255 255
-2.60601 126.939 -56.4462 255 255 255
-12.3297 121.283 -50.7463 255 255 255
-9.81454 115.634 -49.0123 255 255 255
-8.09476 116.321 -49.7602 255 255 255
24.5116 127.946 -64.6997 255 255 255
-11.233 116.616 -50.6918 255 255 255
-7.79021 111.473 -47.6511 255 255 255
4.76643 108.297 -49.9724 255 255 255
17.8571 112 -56.1635 255 255 255
26.6678 113.576 -61.8701 255 255 255
6.71816 106.465 -53.9731 255 255 255
-4.86683 99.9697 -50.0252 255 255 255
61.8986 117.462 -81.0334 255 255 255
49.3627 113.911 -76.1585 255 255 255
57.9701 70.3484 -12.3876 255 255 255
-39.4102 88.7457 -37.8965 255 255 255
54.961 49.278 16.8898 255 255 255
-44.7655 86.6666 -35.6264 255 255 255
63.2213 63.1906 -4.71729 255 255 255
63.2471 63.2859 -5.4601 255 255 255
56.5398 46.4349 19.0553 255 255 255
27.2189 105.2 -68.6529 255 255 255
-48.5296 84.8844 -34.7196 255 255 255
25.0898 105.013 -68.5838 255 255 255
62.317 113.607 -84.2931 255 255 255
73.3266 115.576 -88.6983 255 255 255
21.648 102.727 -66.9737 255 255 255
44.6348 108.635 -77.7377 255 255 255
-23.255 90.1289 -46.5077 255 255 255
47.9735 106.323 -81.344 255 255 255
52.8178 106.808 -83.9248 255 255 255
38.6943 103.147 -77.5736 255 255 255
57.4378 66.1715 -20.7991 255 255 255
18.5319 98.1298 -68.6094 255 255 255
59.8179 39.4725 19.7404 255 255 255
11.4201 95.5132 -66.1945 255 255 255
11.4892 95.6027 -66.3397 255 255 255
53.5126 104.278 -85.722 255 255 255
69.7871 108.11 -93.6621 255 255 255
53.4008 102.991 -86.785 255 255 255
-24.759 83.7832 -51.1746 255 255 255
-18.6777 84.5959 -53.8703 255 255 255
23.1169 92.6759 -74.8094 255 255 255
17.0023 88.2057 -66.6913 255 255 255
-19.3061 81.2887 -56.4639 255 255 255
65.4329 48.9448 -11.0518 255 255 255
-44.888 75.1918 -44.1626 255 255 255
-19.3637 80.7725 -57.1119 255 255 255
-50.6289 73.3475 -42.0665 255 255 255
-25.0355 78.7775 -54.6457 255 255 255
55.8806 36.0232 6.95725 255 255 255
-31.3314 75.3924 -52.0883 255 255 255
-24.4854 76.5564 -56.3517 255 255 255
56.8078 52.5031 -32.0458 255 255 255
63.9027 90.2175 -103.071 255 255 255
66.123 39.8516 -15.1127 255 255 255
40.4618 82.1531 -94.0961 255 255 255
66.1061 17.1904 21.7117 255 255 255
66.1061 17.1904 21.7117 255 255 255
40.753 81.5595 -95.4159 255 255 255
-0.445792 72.3792 -75.028 255 255 255
63.3404 33.9389 -25.0404 255 255 255
63.3404 33.9389 -25.0404 255 255 255
63.3404 33.9389 -25.0404 255 255 255
66.8255 10.5035 18.1678 255 255 255
57.5048 74.3955 -110.013 255 255 255
86.1375 74.1973 -123 255 255 255
85.2529 73.3216 -124.103 255 255 255
85.2529 73.3216 -124.103 255 255 255
-34.7529 57.6515 -63.4143 255 255 255
68.5678 2.98378 19.8619 255 255 255
70.9357 -1.33185 21.0947 255 255 255
60.9986 8.61917 1.89352 255 255 255
3.90313 -2.18802 35.7233 255 255 255
2.03409 -3.16168 36.9577 255 255 255
-12.3312 1.27533 30.2161 255 255 255
-12.7911 1.05466 30.1607 255 255 255
-8.9006 50.4786 -88.1453 255 255 255
-3.3949 -3.35955 36.9129 255 255 255
-9.50689 50.4835 -88.4546 255 255 255
-7.52244 -2.19561 35.0176 255 255 255
-0.369189 -5.90437 38.5514 255 255 255
64.1849 -2.13911 2.112 255 255 255
65.7433 -4.34441 5.58771 255 255 255
78.6135 -17.7285 30.0607 255 255 255
69.8994 -9.61244 11.6576 255 255 255
5.9245 -9.59125 38.5002 255 255 255
71.0421 -11.2687 13.345 255 255 255
60.4803 -2.64054 -8.30037 255 255 255
-12.065 -9.57498 37.0302 255 255 255
69.3726 -13.3422 7.95216 255 255 255
69.588 -14.0761 7.63959 255 255 255
80.6953 -24.9909 29.4561 255 255 255
-19.6286 -6.81532 29.5781 255 255 255
70.6722 -16.1889 9.12748 255 255 255
-13.2243 -11.0373 36.7218 255 255 255
-17.506 -8.98092 32.8463 255 255 255
-7.92162 -13.2671 39.2867 255 255 255
76.7129 -22.5189 20.5325 255 255 255
76.7129 -22.5189 20.5325 255 255 255
-6.26073 -13.8467 39.7627 255 255 255
-16.5066 -10.5858 34.0861 255 255 255
-22.8019 -2.80926 15.513 255 255 255
7.41853 -16.8826 38.2956 255 255 255
66.5999 -14.5756 -0.757834 255 255 255
78.9117 -26.4265 23.8199 255 255 255
-22.784 -7.92108 24.7205 255 255 255
-22.2852 -8.63567 26.5916 255 255 255
-22.6813 -8.2056 25.2191 255 255 255
69.3935 -18.9088 2.72655 255 255 255
67.5928 -17.9872 -0.490546 255 255 255
-12.6931 -15.5381 37.2549 255 255 255
-82.6328 -26.175 108.042 255 255 255
-4.88089 -18.9007 39.3671 255 255 255
19.3876 -23.8884 36.4585 255 255 255
3.65302 -21.9989 39.7849 255 255 255
-7.10556 -20.2189 38.545 255 255 255
-83.021 -26.965 107.5 255 255 255
-83.281 -27.0346 107.715 255 255 255
-83.4092 -27.0876 107.756 255 255 255
-84.1845 -27.2977 108.283 255 255 255
-9.72127 -21.3543 39.1866 255 255 255
3.53219 -25.8615 40.7158 255 255 255
-17.5669 -20.2624 37.3151 255 255 255
-32.9815 -13.3954 23.2415 255 255 255
-38.1609 8.61677 -49.1758 255 255 255
6.49385 -28.4122 42.5216 255 255 255
-28.3979 -15.7699 26.092 255 255 255
-11.2218 -24.2892 39.4844 255 255 255
-19.4594 -21.7476 35.1006 255 255 255
-26.5216 -19.7902 31.5491 255 255 255
-27.6404 -19.4777 31.2774 255 255 255
-3.27249 -28.9924 43.3039 255 255 255
-21.4125 -22.9795 35.5233 255 255 255
-30.7853 -19.019 27.7225 255 255 255
-9.26299 -28.338 42.3754 255 255 255
1.33442 -31.489 42.9883 255 255 255
-10.653 -28.4813 42.5826 255 255 255
-11.0694 -28.7526 42.9077 255 255 255
-2.67421 -31.4169 43.1534 255 255 255
-11.5414 -30.4748 42.0378 255 255 255
-12.869 -30.4986 41.164 255 255 255
-13.9848 -31.3045 39.8327 255 255 255
-16.7862 -30.7313 38.6926 255 255 255
-13.9083 -32.7549 38.5809 255 255 255
-16.324 -32.3002 37.7308 255 255 255
-16.324 -32.3002 37.7308 255 255 255
-7.58842 -35.9752 39.3143 255 255 255
-44.4235 -14.6852 -19.4385 255 255 255
-44.5714 -13.66 -24.3681 255 255 255
-13.8896 -35.8297 36.1647 255 255 255
-15.3894 -35.8605 35.3625 255 255 255
-8.33939 -39.294 36.486 255 255 255
-48.2 -17.6516 -22.3281 255 255 255
-6.55205 242.975 -167.758 255 255 255
-21.4504 139.712 -50.6662 255 255 255
23.183 155.412 -66.2979 255 255 255
23.4538 152.826 -67.4587 255 255 255
24.7989 146.805 -71.8772 255 255 255
29.2899 130.158 -67.0335 255 255 255
-12.523 117.015 -52.4207 255 255 255
-8.45044 113.03 -48.0004 255 255 255
-50.0097 100.149 -34.604 255 255 255
-5.43193 107.316 -46.2767 255 255 255
-51.2024 98.8879 -35.0838 255 255 255
13.6485 111.137 -54.1756 255 255 255
14.6192 110.571 -55.2786 255 255 255
46.6839 117.633 -69.9033 255 255 255
39.8534 115.856 -67.6207 255 255 255
79.0812 122.612 -87.5623 255 255 255
54.2378 115.632 -78.3897 255 255 255
99.8243 128.671 -99.8382 255 255 255
-47.9584 86.4181 -33.8712 255 255 255
15.6591 103.058 -62.4097 255 255 255
23.9595 104.087 -67.8149 255 255 255
57.0612 46.0453 18.5289 255 255 255
61.008 40.7863 23.9751 255 255 255
-61.8182 79.5612 -30.0267 255 255 255
17.5351 99.128 -67.6254 255 255 255
-35.3814 84.5689 -43.7488 255 255 255
79.5713 112.47 -95.2174 255 255 255
11.9999 96.1487 -65.8162 255 255 255
48.231 104.185 -82.1861 255 255 255
-12.1667 88.9938 -55.6091 255 255 255
63.3561 55.9029 -12.1743 255 255 255
60.5845 58.4149 -17.0068 255 255 255
82.1762 107.851 -101.296 255 255 255
69.3937 104.12 -95.1687 255 255 255
12.7079 91.2381 -70.3122 255 255 255
-54.4127 74.4708 -38.3683 255 255 255
50.5991 97.6395 -90.1876 255 255 255
72.8852 101.324 -100.462 255 255 255
61.1683 53.1149 -18.1005 255 255 255
61.3684 52.5385 -19.8643 255 255 255
69.7246 99.0376 -99.8102 255 255 255
27.3584 89.1495 -80.1677 255 255 255
64.2931 26.5452 22.6388 255 255 255
-29.7139 76.1263 -53.8647 255 255 255
-21.5677 77.6875 -57.8756 255 255 255
53.0994 91.498 -94.5819 255 255 255
57.3188 52.6356 -29.8046 255 255 255
59.643 90.6454 -99.4633 255 255 255
71.9411 92.6465 -105.255 255 255 255
5.04037 79.2217 -73.8471 255 255 255
66.693 91.155 -104.667 255 255 255
66.4854 19.7444 23.4372 255 255 255
102.438 97.2287 -121.685 255 255 255
46.3719 86.1358 -95.2159 255 255 255
65.3293 18.4813 23.7215 255 255 255
72.2883 89.7367 -109.558 255 255 255
95.0387 92.2073 -120.73 255 255 255
80.6354 88.0661 -114.659 255 255 255
24.465 78.9517 -87.8729 255 255 255
24.465 78.9517 -87.8729 255 255 255
65.7246 32.8838 -20.7389 255 255 255
66.1071 32.2782 -19.8952 255 255 255
-41.6067 61.9883 -56.4741 255 255 255
14.8347 67.0606 -81.7923 255 255 255
30.4287 70.3731 -99.9215 255 255 255
55.98 19.4686 -5.09241 255 255 255
65.512 26.6185 -25.1459 255 255 255
63.6239 70.8831 -117.954 255 255 255
34.0925 64.707 -103.709 255 255 255
75.4435 -5.45886 29.9376 255 255 255
-29.7196 53.8529 -70.2526 255 255 255
66.5142 3.23986 12.3765 255 255 255
70.6512 -1.44283 19.2187 255 255 255
-5.4363 6.79019 22.9647 255 255 255
69.7509 -2.28633 16.4165 255 255 255
3.04574 -2.35397 35.8783 255 255 255
13.0427 54.0002 -98.5003 255 255 255
2.10463 -5.20163 37.8982 255 255 255
59.1171 4.59146 -6.61839 255 255 255
-15.2732 46.8417 -81.6628 255 255 255
78.2701 -15.3626 30.4782 255 255 255
25.5996 39.6016 -88.748 255 255 255
-18.6677 -2.37089 28.0471 255 255 255
70.2916 -11.2966 11.7828 255 255 255
69.4323 -10.8849 9.25981 255 255 255
-18.8168 -3.21075 28.4787 255 255 255
-19.8292 -5.63088 28.7815 255 255 255
5.0106 -14.7296 39.2538 255 255 255
-21.843 0.750776 10.3607 255 255 255
-20.6346 -6.64622 28.0661 255 255 255
-22.5077 3.71403 0.480129 255 255 255
-2.00461 -14.5905 40.2153 255 255 255
19.911 -15.502 30.8226 255 255 255
-23.8101 -0.735034 12.3273 255 255 255
-22.4558 -5.48316 24.1082 255 255 255
66.9729 -13.5242 -0.345849 255 255 255
79.564 -27.2324 24.9636 255 255 255
79.629 -27.6419 25.1397 255 255 255
-17.5483 -11.548 33.6112 255 255 255
80.1082 -28.9944 24.9964 255 255 255
-84.012 -26.2584 109.316 255 255 255
-22.1865 -10.4521 27.3107 255 255 255
-82.6589 -26.2801 107.831 255 255 255
2.98419 -20.1287 38.9072 255 255 255
-83.6095 -26.3608 108.36 255 255 255
-20.7465 -12.7439 29.939 255 255 255
-17.6439 -14.7803 33.6013 255 255 255
10.4151 -22.5096 38.9527 255 255 255
79.8137 -32.4623 22.2881 255 255 255
-20.055 12.1728 -53.4859 255 255 255
-83.6481 -26.9759 108.168 255 255 255
-83.9077 -27.0201 108.373 255 255 255
-18.68 -17.3619 34.3509 255 255 255
-19.1461 -17.9038 34.8202 255 255 255
11.9989 -27.1882 40.2828 255 255 255
17.0796 -28.5126 40.1823 255 255 255
-33.6133 -14.3115 24.3444 255 255 255
-16.8691 -22.0555 37.5185 255 255 255
78.5515 -37.5548 14.7149 255 255 255
5.0946 -30.1009 44.198 255 255 255
78.1149 -37.917 12.6294 255 255 255
4.05824 -30.4541 43.8573 255 255 255
-2.74731 -28.6381 42.7478 255 255 255
-29.3641 -19.7353 31.1162 255 255 255
-31.9954 -17.6878 25.4049 255 255 255
-28.995 -20.5509 32.449 255 255 255
0.00555199 -30.5482 43.5424 255 255 255
-2.96138 -30.109 44.0004 255 255 255
-15.968 -26.6303 39.9893 255 255 255
-21.5605 -26.3348 37.7289 255 255 255
-21.523 -26.3579 37.6975 255 255 255
61.8229 -41.2778 13.799 255 255 255
-3.11171 -32.9671 41.9606 255 255 255
-27.5231 -25.0738 31.7343 255 255 255
-22.5544 -27.4162 35.4343 255 255 255
-31.4395 -22.4589 23.203 255 255 255
-23.3904 -27.3202 34.2366 255 255 255
-34.1862 -20.8283 16.5376 255 255 255
-19.5034 -30.2678 39.1955 255 255 255
-47.3373 -8.54918 -27.366 255 255 255
51.7281 -46.413 20.3928 255 255 255
-23.5823 -30.486 31.9508 255 255 255
-25.0837 -30.6937 29.8255 255 255 255
-32.4266 -28.0046 24.807 255 255 255
-25.3199 -31.1534 29.068 255 255 255
-31.0856 -28.2813 22.032 255 255 255
-45.9021 -16.4407 -17.1192 255 255 255
-32.3236 -28.6416 23.6753 255 255 255
-47.4876 -17.7403 -15.6026 255 255 255
-16.8453 -36.4039 35.4253 255 255 255
23.4452 154.658 -64.8206 255 255 255
-11.8676 115.537 -51.9087 255 255 255
-11.5232 114.73 -51.8142 255 255 255
-54.5132 97.1566 -33.444 255 255 255
42.9665 116.519 -68.5029 255 255 255
35.6074 110.284 -70.4595 255 255 255
51.1028 114.569 -76.6614 255 255 255
57.859 70.6533 -12.6218 255 255 255
-58.6959 82.7016 -29.5564 255 255 255
60.6108 66.9109 -11.1343 255 255 255
61.06 40.0087 26.7499 255 255 255
-47.6779 82.9696 -36.2245 255 255 255
17.4459 99.7991 -65.7883 255 255 255
68.8081 110.667 -90.8477 255 255 255
39.7369 103.37 -77.9189 255 255 255
58.8618 63.9815 -18.5297 255 255 255
-45.462 80.4991 -38.0784 255 255 255
61.0057 60.3414 -15.2986 255 255 255
34.9596 99.6983 -77.5791 255 255 255
70.5703 107.69 -95.3754 255 255 255
100.515 112.26 -109.733 255 255 255
62.4691 54.6674 -13.5859 255 255 255
16.4242 91.393 -72.0829 255 255 255
74.0905 104.697 -99.0994 255 255 255
57.9127 59.1218 -24.6077 255 255 255
-17.4127 81.8362 -57.6905 255 255 255
69.4268 100.73 -98.3248 255 255 255
64.0304 49.1899 -12.7623 255 255 255
65.5905 48.6801 -15.5378 255 255 255
100.258 101.019 -117.68 255 255 255
72.2142 94.1403 -104.933 255 255 255
81.9795 94.6852 -110.099 255 255 255
74.6144 92.3849 -107.483 255 255 255
84.8178 93.4031 -111.658 255 255 255
37.8802 84.4636 -90.5123 255 255 255
67.6186 89.155 -106.037 255 255 255
57.7077 48.795 -31.7042 255 255 255
54.9587 85.6416 -101.333 255 255 255
65.593 16.9427 23.1937 255 255 255
18.3794 76.6859 -85.1047 255 255 255
60.5886 41.8503 -29.1873 255 255 255
60.6727 41.8665 -29.2878 255 255 255
60.3423 18.7823 7.74567 255 255 255
60.0594 34.4909 -22.9032 255 255 255
30.9656 73.6547 -94.6577 255 255 255
65.6604 31.7812 -21.137 255 255 255
63.2239 34.1318 -26.1954 255 255 255
88.5618 78.5167 -125.451 255 255 255
-16.3293 63.2293 -71.7574 255 255 255
61.8866 31.7855 -32.3705 255 255 255
61.7654 31.7095 -32.1931 255 255 255
84.3991 73.7801 -125.893 255 255 255
85.6623 72.7276 -123.76 255 255 255
58.8244 69.8218 -114.052 255 255 255
-24.5071 58.3429 -70.0423 255 255 255
-2.45998 60.6245 -81.8404 255 255 255
15.6826 60.6826 -93.9452 255 255 255
66.5634 4.16785 12.2418 255 255 255
66.0633 4.00432 10.9677 255 255 255
2.94912 7.25485 22.3576 255 255 255
70.5238 -1.33106 20.5735 255 255 255
0.292765 -2.58444 36.8475 255 255 255
-12.1366 0.561853 31.1914 255 255 255
-14.7363 1.535 28.1101 255 255 255
77.0826 -15.3069 27.3611 255 255 255
-15.5536 -1.58565 30.5649 255 255 255
-4.96263 -6.65219 38.6383 255 255 255
-6.20051 -6.43568 38.2826 255 255 255
-7.14939 -7.74989 38.5804 255 255 255
79.1088 -19.1126 30.2334 255 255 255
69.2587 -11.1749 8.64333 255 255 255
-20.7963 -5.52498 27.6102 255 255 255
68.4437 -13.92 4.31679 255 255 255
-19.016 -8.16103 31.1422 255 255 255
71.1048 -17.3724 8.58194 255 255 255
71.1048 -17.3724 8.58194 255 255 255
-5.41015 -14.5462 39.1707 255 255 255
-19.5697 -9.52842 32.2194 255 255 255
-27.3552 0.974643 4.44532 255 255 255
80.207 -28.0342 25.7358 255 255 255
-22.4719 -7.90647 25.7876 255 255 255
-21.0225 -10.0616 28.9824 255 255 255
79.6258 -29.0761 23.4472 255 255 255
-0.88964 -20.0578 38.5313 255 255 255
-20.5633 -17.1535 34.0265 255 255 255
-12.6517 -20.4777 38.2278 255 255 255
-10.3544 -21.3247 39.3762 255 255 255
-12.7712 -21.0795 38.8044 255 255 255
-83.4722 -27.6229 107.05 255 255 255
-82.6673 -27.5167 105.997 255 255 255
-82.6673 -27.5167 105.997 255 255 255
-8.90833 -24.8048 40.2561 255 255 255
-35.1833 -14.755 23.1489 255 255 255
-26.8409 -19.4827 31.3595 255 255 255
-32.9163 -12.8715 11.5141 255 255 255
-30.0901 -18.8476 30.0292 255 255 255
-37.738 0.922543 -39.1269 255 255 255
-40.2511 0.71689 -39.1522 255 255 255
-17.972 -25.7749 39.0151 255 255 255
-14.2725 -27.7707 41.9715 255 255 255
-46.8826 -5.64909 -31.1092 255 255 255
-1.76073 -36.8701 38.774 255 255 255
-28.2068 -28.3061 29.2349 255 255 255
-13.5664 -33.9117 37.4062 255 255 255
-28.4039 -28.9094 27.8275 255 255 255
-13.7164 -36.7784 35.5842 255 255 255
-7.49083 -38.9793 37.0885 255 255 255
-11.2139 -37.8323 36.4911 255 255 255
-30.5838 -30.0922 21.312 255 255 255
22.4108 153.57 -67.0524 255 255 255
21.9398 154.079 -70.5467 255 255 255
-11.1692 115.328 -50.949 255 255 255
-7.01384 113.182 -48.3579 255 255 255
-22.4502 109.665 -46.7611 255 255 255
0.766613 106.46 -51.9241 255 255 255
33.0543 113.966 -64.6439 255 255 255
31.113 114.32 -65.7671 255 255 255
58.7753 74.2373 -12.2972 255 255 255
-5.51738 98.6407 -52.3481 255 255 255
58.3563 68.8469 -16.6659 255 255 255
-61.6682 78.688 -30.7919 255 255 255
-53.4595 79.1736 -35.6109 255 255 255
56.5203 42.6391 14.5731 255 255 255
15.9167 93.1094 -70.1282 255 255 255
65.6599 51.8534 -8.38355 255 255 255
71.3205 103.449 -97.8099 255 255 255
20.6009 87.7835 -77.4757 255 255 255
-43.9609 72.2046 -46.9113 255 255 255
64.2479 43.6818 -17.0689 255 255 255
58.41 49.8779 -29.3336 255 255 255
58.41 49.8779 -29.3336 255 255 255
57.2329 23.9076 10.1592 255 255 255
-31.6775 66.1812 -59.8123 255 255 255
68.4741 15.0859 18.6286 255 255 255
78.2492 63.5769 -81.2084 255 255 255
65.0961 32.9365 -22.6154 255 255 255
59.8875 16.5898 3.77623 255 255 255
57.5464 18.2387 -2.95033 255 255 255
60.3849 11.8729 2.1458 255 255 255
59.495 12.1619 -0.281566 255 255 255
59.5151 12.1663 -0.319012 255 255 255
59.2612 12.0793 -0.0109304 255 255 255
-3.51237 55.0402 -85.9441 255 255 255
66.5959 2.21761 9.29766 255 255 255
59.4037 8.62006 -3.96289 255 255 255
58.9441 8.73744 -2.9956 255 255 255
-2.48009 54.6734 -90.5849 255 255 255
-3.60164 53.5124 -87.4275 255 255 255
14.8169 54.4334 -96.9025 255 255 255
-3.40868 52.4238 -89.0946 255 255 255
-3.40868 52.4238 -89.0946 255 255 255
2.16746 54.5313 -96.7457 255 255 255
68.0979 -6.39402 8.83269 255 255 255
78.1035 -16.7986 29.4847 255 255 255
-21.2232 -2.52156 24.0693 255 255 255
-4.73122 -11.9252 39.628 255 255 255
-21.3931 -6.07144 26.6716 255 255 255
79.8738 -28.0434 24.914 255 255 255
-0.629918 -17.5463 39.8627 255 255 255
-10.6448 -15.3194 38.2777 255 255 255
80.5186 -31.2331 23.87 255 255 255
78.3804 -29.4702 19.6791 255 255 255
-18.6162 -14.4193 32.721 255 255 255
-30.2287 -7.07979 14.7269 255 255 255
-83.1878 -26.8655 107.727 255 255 255
-16.9043 -17.5822 34.6261 255 255 255
1.63799 -25.4854 40.8085 255 255 255
-33.2422 -10.5479 16.0373 255 255 255
79.7571 -36.7899 18.3137 255 255 255
79.7497 -37.4695 17.8436 255 255 255
78.668 -38.2835 14.216 255 255 255
-41.2149 2.43702 -41.5119 255 255 255
-27.9208 -20.987 32.9927 255 255 255
-12.4974 -27.3834 41.3724 255 255 255
-22.6775 -26.9088 35.7764 255 255 255
-40.8032 -11.3512 -24.3032 255 255 255
-22.48 -32.2275 31.816 255 255 255
-22.48 -32.2275 31.816 255 255 255
-26.3819 -30.7338 28.4581 255 255 255
-21.9086 134.365 -55.9053 255 255 255
-20.1802 131.559 -54.8251 255 255 255
4.2247 131.408 -54.0282 255 255 255
-50.7853 105.83 -29.9167 255 255 255
21.2219 129.25 -64.0913 255 255 255
0.192386 117.584 -52.4614 255 255 255
0.192386 117.584 -52.4614 255 255 255
-7.66729 109.729 -47.5297 255 255 255
-5.38935 105.372 -47.0229 255 255 255
-15.2566 96.6908 -45.9364 255 255 255
61.1664 65.7342 -10.1927 255 255 255
0.731958 96.0237 -58.3288 255 255 255
-27.8403 77.2722 -54.0741 255 255 255
99.4604 99.5541 -118.524 255 255 255
12.9683 76.8819 -82.8105 255 255 255
59.013 42.4514 -32.6683 255 255 255
-5.84292 69.8286 -74.1519 255 255 255
56.7957 23.444 2.52677 255 255 255
46.1291 69.3238 -110.795 255 255 255
63.0676 28.7305 -30.6036 255 255 255
48.9882 67.5292 -111.478 255 255 255
55.0286 13.6582 -9.5876 255 255 255
58.4328 9.54212 -3.73829 255 255 255
72.5309 -5.47589 21.7316 255 255 255
77.9409 -13.2759 31.9146 255 255 255
58.1631 5.03344 -3.83578 255 255 255
78.0066 -15.0767 29.8467 255 255 255
-18.1083 -0.597878 26.7466 255 255 255
-7.05663 -8.27102 37.8551 255 255 255
-7.40771 -9.34116 38.7889 255 255 255
77.2897 -19.3906 25.1989 255 255 255
-20.2885 -4.0611 27.2095 255 255 255
-11.4191 -10.0968 37.2288 255 255 255
-6.96085 -11.7764 39.3629 255 255 255
-17.2097 -8.89753 33.2808 255 255 255
-0.631208 -16.4225 39.9916 255 255 255
-19.9351 -10.1621 30.4457 255 255 255
-32.8901 -9.38556 18.0961 255 255 255
-83.0436 -27.2387 107.17 255 255 255
-33.7335 -12.337 20.461 255 255 255
80.3781 -38.0081 18.5965 255 255 255
80.3781 -38.0081 18.5965 255 255 255
-34.6071 4.89531 -44.3073 255 255 255
-30.2989 -17.4677 28.7678 255 255 255
-26.8939 -21.4395 33.7299 255 255 255
-7.57177 -28.4811 42.3063 255 255 255
-23.1729 -23.7101 36.442 255 255 255
-10.4494 -33.8759 39.5781 255 255 255
-42.7847 -12.1777 -22.9022 255 255 255
-23.7274 -31.3772 31.135 255 255 255
2.85394 121.11 -54.7757 255 255 255
9.24819 120.552 -56.361 255 255 255
-46.2172 86.7102 -34.6933 255 255 255
59.5853 43.0886 23.5436 255 255 255
36.5386 107.022 -73.9727 255 255 255
63.5262 37.4214 24.5658 255 255 255
-8.75227 87.2646 -56.1641 255 255 255
57.8543 62.7095 -21.8114 255 255 255
72.7008 100.632 -99.1173 255 255 255
60.3139 89.5396 -101.597 255 255 255
63.3673 15.3118 12.6418 255 255 255
2.05195 60.1908 -87.0994 255 255 255
1.90758 58.992 -89.7603 255 255 255
-10.521 -3.22621 35.4329 255 255 255
79.02 -16.8058 31.5895 255 255 255
-11.8335 -3.47118 34.5526 255 255 255
-2.29977 -6.82199 38.7435 255 255 255
60.5069 1.02958 -5.12108 255 255 255
-12.6661 -5.37407 35.0485 255 255 255
-12.6829 -5.37422 34.9288 255 255 255
-19.0181 -2.31225 27.5217 255 255 255
-22.503 -3.33965 20.1651 255 255 255
-21.6364 -7.34618 27.0637 255 255 255
-0.383489 -18.7745 39.6504 255 255 255
-82.9597 -26.4981 107.813 255 255 255
-13.2377 -21.2233 38.6752 255 255 255
-25.7787 -22.147 34.4673 255 255 255
-21.3421 -24.7141 37.8387 255 255 255
-20.7097 -25.1285 38.6524 255 255 255
-17.5959 -32.2993 37.4045 255 255 255
-32.1348 -25.3386 19.3122 255 255 255
-44.6594 -14.3815 -23.5035 255 255 255
-46.6984 -15.9856 -18.3836 255 255 255
26.5323 112.838 -64.1176 255 255 255
-5.38833 99.7351 -50.8799 255 255 255
-50.1618 85.6355 -32.9816 255 255 255
-62.0444 82.0444 -28.213 255 255 255
102.221 108.532 -113.725 255 255 255
68.1806 4.97495 19.3303 255 255 255
-16.4938 1.97203 25.4047 255 255 255
-21.7212 -2.16772 21.8102 255 255 255
-84.6066 -27.4862 108.873 255 255 255
-82.7885 -29.2082 104.711 255 255 255
-31.8821 -25.4484 26.4808 255 255 255
-23.7962 -30.7194 31.7758 255 255 255
55.8374 40.3716 16.269 255 255 255
36.0988 94.442 -79.6494 255 255 255
83.1514 90.7091 -114.339 255 255 255
-3.95399 73.7445 -70.7287 255 255 255
71.1762 78.0225 -117.668 255 255 255
14.1861 61.1135 -93.3606 255 255 255
16.2552 55.6009 -96.9753 255 255 255
-9.91436 -6.89297 37.3171 255 255 255
-18.3598 -26.7845 40.6479 255 255 255
14.3822 111.561 -55.6198 255 255 255
64.9605 88.6757 -103.383 255 255 255
-1.02416 -9.43809 39.9671 255 255 255
-18.2617 -10.5456 32.4443 255 255 255
-84.4821 -26.6119 109.903 255 255 255
-17.3793 -18.727 36.2799 255 255 255
80.1176 -35.6337 19.1753 255 255 255
-0.00982613 -33.4428 41.3552 255 255 255
-0.00263917 -33.4803 41.4195 255 255 255
-32.1122 -25.7185 19.6049 255 255 255
10.3341 107.171 -57.5011 255 255 255
-83.8984 -27.1082 108.167 255 255 255
40.99 88.3823 -89.3579 255 255 255
-17.4448 -6.27409 30.9957 255 255 255
0.754456 97.046 -57.4307 255 255 255
-43.2287 80.564 -41.4684 255 255 255
25.8 86.2704 -86.6953 255 255 255
-26.4328 91.678 -48.8953 255 255 255
-92.4751 6.75311 103.509 255 255 255
-85.3378 -12.4601 104.208 255 255 255
-164.745 67.793 -126.027 255 255 255
-163.247 68.6755 -127.559 255 255 255
-168.847 96.4431 -147.327 255 255 255
-150.264 126.407 -89.9612 255 255 255
-131.889 106.52 -67.5555 255 255 255
-132.085 66.8931 -96.4965 255 255 255
-132.436 120.347 -71.4606 255 255 255
-122.905 92.0991 -58.6481 255 255 255
-119.146 100.054 -44.1875 255 255 255
-119.115 96.5264 -48.2807 255 255 255
-117.788 81.7495 -55.7998 255 255 255
-145.222 165.685 -101.721 255 255 255
-113.56 45.9685 -73.2807 255 255 255
-110.516 67.6125 -51.7143 255 255 255
-125.18 132.714 -73.9826 255 255 255
-125.794 133.952 -76.2261 255 255 255
-125.906 134.751 -80.8239 255 255 255
-122.821 130.929 -73.8394 255 255 255
-124.999 138.623 -78.4126 255 255 255
-101.19 77.0535 -25.5722 255 255 255
-101.19 77.0535 -25.5722 255 255 255
-99.4894 57.5578 -36.1321 255 255 255
-99.7046 74.0656 -24.5419 255 255 255
-126.29 161.771 -87.6973 255 255 255
-94.3658 36.9214 -41.9825 255 255 255
-92.799 74.406 -11.9418 255 255 255
-113.706 131.885 -65.3719 255 255 255
-119.693 139.484 -95.0311 255 255 255
-91.3242 55.7939 -23.1463 255 255 255
-111.867 130.87 -64.45 255 255 255
-91.6315 41.3884 -40.6635 255 255 255
-111.72 132.663 -66.3358 255 255 255
-90.6642 34.5871 -45.2423 255 255 255
-91.1906 70.2949 -18.7688 255 255 255
-90.4807 75.5971 -13.8564 255 255 255
-106.194 120.689 -53.7277 255 255 255
-89.0543 30.3864 -49.644 255 255 255
-91.2064 81.3519 -17.6407 255 255 255
-108.965 140.807 -60.7887 255 255 255
-88.7022 37.2011 -44.1897 255 255 255
-66.1543 -37.4742 8.16852 255 255 255
-88.0361 26.2427 -53.8329 255 255 255
-107.527 144.554 -55.4131 255 255 255
-65.899 -35.6192 8.22531 255 255 255
-107.245 134.815 -66.2835 255 255 255
-107.169 133.897 -67.2546 255 255 255
-65.4933 -36.8334 8.23237 255 255 255
-89.9818 84.886 -18.633 255 255 255
-105.699 133.296 -66.7732 255 255 255
-106.103 139.356 -64.7397 255 255 255
-105.746 138.016 -62.5715 255 255 255
-86.4733 33.0583 -50.5555 255 255 255
-86.2276 27.1794 -56.3241 255 255 255
-105.114 135.248 -67.2805 255 255 255
-85.1093 22.2319 -57.7124 255 255 255
-85.5615 52.6601 -36.0384 255 255 255
-104.5 142.474 -64.7646 255 255 255
-84.404 49.6107 -38.3811 255 255 255
-84.0256 38.0892 -47.6301 255 255 255
-84.5754 56.717 -33.4168 255 255 255
-88.2102 93.2777 -20.5221 255 255 255
-90.4705 103.58 -29.2252 255 255 255
-83.3066 60.4632 -28.9927 255 255 255
-88.3467 92.145 -30.6101 255 255 255
-83.0204 77.6812 -16.7567 255 255 255
-81.3626 35.9904 -48.8496 255 255 255
-86.905 98.1868 -24.8054 255 255 255
-89.3235 108.454 -32.3355 255 255 255
-83.4531 83.2115 -19.499 255 255 255
-81.0956 64.9591 -20.1653 255 255 255
-81.8507 76.1231 -20.33 255 255 255
-85.9312 101.906 -26.3968 255 255 255
-81.0214 76.9097 -19.9273 255 255 255
-72.2304 0.159532 -40.0238 255 255 255
-78.1855 72.2229 -12.884 255 255 255
-81.0898 81.481 -19.376 255 255 255
-78.8818 40.1165 -51.2878 255 255 255
-81.5697 86.7083 -21.2743 255 255 255
-77.4031 39.9349 -49.9476 255 255 255
-78.2005 64.2828 -30.0177 255 255 255
-75.284 69.7996 -0.69398 255 255 255
-77.4458 44.2032 -49.545 255 255 255
-77.4458 44.2032 -49.545 255 255 255
-78.0005 74.8941 -23.3592 255 255 255
-83.554 104.791 -35.4989 255 255 255
-76.2878 44.7798 -48.2427 255 255 255
-76.1871 65.8389 -34.5558 255 255 255
-54.1261 -43.6223 17.0875 255 255 255
-83.298 116.015 -33.0878 255 255 255
-82.1527 112.048 -31.6151 255 255 255
-82.9481 116.538 -33.0437 255 255 255
-81.7839 113.976 -31.9685 255 255 255
-90.7013 157.535 -76.6239 255 255 255
-72.7363 77.8652 -12.9807 255 255 255
-71.0671 30.3729 -61.0553 255 255 255
-71.403 43.3476 -50.9165 255 255 255
-72.6309 68.254 -31.3807 255 255 255
-72.6309 68.254 -31.3807 255 255 255
-58.6914 -18.3036 -15.0499 255 255 255
-88.4558 153.396 -74.3901 255 255 255
-87.7414 152.558 -75.3832 255 255 255
-49.9276 -47.6835 22.5835 255 255 255
-71.4797 71.4046 -30.441 255 255 255
-56.8832 -20.5158 -12.7301 255 255 255
-57.2209 -18.0481 -14.763 255 255 255
-77.3676 119.885 -35.5008 255 255 255
-67.0771 52.2475 -48.769 255 255 255
-68.8677 80.7059 -24.1357 255 255 255
-84.4015 163.214 -82.4487 255 255 255
-54.5574 -19.0282 -13.4641 255 255 255
-84.5031 166.631 -85.012 255 255 255
-61.7854 14.459 -59.4992 255 255 255
-67.0214 75.5168 -29.0969 255 255 255
-72.0851 111.325 -34.4542 255 255 255
-72.1753 111.589 -34.7812 255 255 255
-63.2632 35.0018 -62.902 255 255 255
-54.7705 -0.571074 -38.0249 255 255 255
-44.018 -52.6803 28.5009 255 255 255
-63.819 78.5953 -29.6218 255 255 255
-62.8083 68.4733 -37.5843 255 255 255
-63.61 78.2957 -30.7077 255 255 255
-76.1793 160.61 -85.1702 255 255 255
-77.4459 169.954 -89.7221 255 255 255
-51.9698 -6.14436 -31.0157 255 255 255
-49.9604 -10.0098 -24.8159 255 255 255
-41.9112 -51.5304 30.4927 255 255 255
-39.5679 -64.5023 44.8167 255 255 255
-61.9418 141.788 -46.9146 255 255 255
-71.7786 172.713 -93.6618 255 255 255
-56.13 52.1296 -54.7195 255 255 255
-53.9093 37.4566 -66.3909 255 255 255
-68.2522 164.945 -89.478 255 255 255
-54.716 57.6286 -52.4218 255 255 255
-37.1537 -66.4191 46.3593 255 255 255
-45.0469 -8.55762 -27.4903 255 255 255
-45.2276 -8.5976 -32.0986 255 255 255
-53.556 69.5413 -44.0031 255 255 255
-63.5172 162.209 -88.8835 255 255 255
-52.3388 70.0077 -44.4912 255 255 255
-52.6014 73.903 -39.678 255 255 255
-53.1991 82.4392 -34.1461 255 255 255
-45.0616 10.7278 -52.0622 255 255 255
-62.136 162.445 -89.1048 255 255 255
-34.7442 -64.5919 44.1841 255 255 255
-46.294 47.4666 -63.0294 255 255 255
-34.3321 -66.9059 47.1919 255 255 255
-47.5669 70.7998 -48.1407 255 255 255
-54.5387 164.542 -92.4116 255 255 255
-47.6839 104.729 -32.6157 255 255 255
-43.293 77.0718 -43.03 255 255 255
-30.345 -58.6976 37.0466 255 255 255
-38.2572 76.9868 -47.3912 255 255 255
-29.2985 -65.4802 44.8251 255 255 255
-32.5969 -16.0436 24.0034 255 255 255
-29.0138 -68.2957 48.9433 255 255 255
-29.0868 -65.0862 45.0606 255 255 255
-32.6597 -13.0624 22.6989 255 255 255
-30.1092 49.8515 -72.1408 255 255 255
-29.4293 -30.994 22.1747 255 255 255
-27.3186 -63.836 44.288 255 255 255
-30.0954 -3.62817 10.4949 255 255 255
-26.9271 -68.2269 48.4949 255 255 255
-29.4347 -20.5543 30.7932 255 255 255
-26.5365 -61.0517 39.9594 255 255 255
-28.8733 -1.8085 8.18177 255 255 255
-35.1713 135.764 -54.6305 255 255 255
-29.2071 -21.7118 33.674 255 255 255
-28.7148 -4.24135 11.6832 255 255 255
-26.0611 -60.9001 39.7549 255 255 255
-33.9421 134.64 -52.8487 255 255 255
-25.56 -58.4227 35.8154 255 255 255
-25.6632 -64.6787 44.6066 255 255 255
-25.9916 65.3497 -63.7062 255 255 255
-24.8624 61.7903 -66.4256 255 255 255
-24.9411 -58.4864 36.8929 255 255 255
-25.1015 -64.5546 44.7029 255 255 255
-23.104 53.783 -73.0819 255 255 255
-23.4834 62.0705 -67.6198 255 255 255
-26.1034 -6.50955 19.7073 255 255 255
-23.6259 -54.1126 33.2739 255 255 255
-24.898 0.38303 5.10105 255 255 255
-25.5407 -6.41656 20.0216 255 255 255
-18.9925 59.9411 -72.96 255 255 255
-23.3554 2.70748 2.37696 255 255 255
-19.4229 63.4436 -69.3289 255 255 255
-23.7844 94.4272 -40.8835 255 255 255
-18.0315 80.0255 -57.294 255 255 255
-17.98 80.387 -57.9699 255 255 255
-12.9278 17.6894 -61.5319 255 255 255
-13.6387 55.9238 -76.6113 255 255 255
-20.7482 -64.7821 44.8951 255 255 255
-19.5221 3.39794 7.06423 255 255 255
-19.921 -64.6801 45.2636 255 255 255
-9.88456 63.334 -78.3961 255 255 255
-13.3703 79.5353 -61.318 255 255 255
-16.7214 95.4105 -46.1863 255 255 255
-9.94933 66.5498 -74.086 255 255 255
-17.2814 132.505 -55.1601 255 255 255
-19.2313 -63.5515 43.4457 255 255 255
-11.6297 79.2972 -63.0376 255 255 255
-16.3857 130.428 -52.4751 255 255 255
-18.5415 -63.6144 43.3005 255 255 255
-15.2589 135.74 -56.3631 255 255 255
-14.7099 141.189 -59.2411 255 255 255
-5.65102 23.1569 -66.8061 255 255 255
-14.6398 136.364 -56.7767 255 255 255
-14.3632 131.778 -54.9586 255 255 255
-14.3252 126.171 -51.7379 255 255 255
-13.8616 133.008 -55.5895 255 255 255
-4.06495 57.1216 -84.9749 255 255 255
-17.5926 -61.9123 41.1497 255 255 255
-8.34555 78.1149 -66.2643 255 255 255
-18.7005 1.22374 24.3971 255 255 255
-17.3919 -62.0583 41.2707 255 255 255
-17.1995 -61.5119 40.5698 255 255 255
-17.2159 -61.4702 40.6121 255 255 255
-12.7355 131.549 -54.3586 255 255 255
-12.797 133.948 -55.7942 255 255 255
-12.3577 121.017 -50.2516 255 255 255
-11.3527 140.602 -59.8014 255 255 255
-11.0426 142.123 -60.7255 255 255 255
-11.0523 137.502 -58.3414 255 255 255
-18.3208 -18.8363 36.2772 255 255 255
-11.15 124.985 -52.4244 255 255 255
-0.44183 31.3668 -78.594 255 255 255
-9.17629 94.4609 -51.0038 255 255 255
-3.00709 68.5095 -75.5996 255 255 255
-10.3144 123.105 -51.6855 255 255 255
-10.3359 130.092 -54.3074 255 255 255
-9.5837 126.056 -53.6064 255 255 255
-8.77675 143.711 -62.0276 255 255 255
-8.5267 145.152 -62.6539 255 255 255
0.370772 25.3676 -70.3896 255 255 255
-8.07119 127.444 -53.7495 255 255 255
-5.67845 159.991 -75.9959 255 255 255
-7.5259 137.333 -58.3203 255 255 255
-7.99293 113.877 -48.2356 255 255 255
-7.99293 113.877 -48.2356 255 255 255
-7.88356 122.615 -51.555 255 255 255
1.59907 64.2891 -81.8225 255 255 255
-7.53185 118.116 -49.744 255 255 255
-7.3677 127.588 -53.4543 255 255 255
-6.99753 143.338 -60.2518 255 255 255
-6.7083 140.875 -59.5901 255 255 255
-16.0659 -16.6991 35.0138 255 255 255
-6.86952 118.362 -49.7605 255 255 255
-2.12028 86.2054 -64.3626 255 255 255
-5.6157 143.722 -63.0406 255 255 255
-6.25058 127.805 -54.4748 255 255 255
-5.31119 141.337 -62.3422 255 255 255
2.60667 23.5812 -69.2241 255 255 255
0.13942 78.0644 -71.5348 255 255 255
-5.60762 133.163 -56.9783 255 255 255
-5.00772 146.005 -63.7288 255 255 255
-6.22435 111.948 -47.8822 255 255 255
-6.1391 111.925 -47.8492 255 255 255
-5.92892 132.516 -54.5969 255 255 255
-5.12808 140.501 -58.8383 255 255 255
-15.5879 -7.24071 33.9065 255 255 255
-3.83679 144.262 -63.6318 255 255 255
-4.76368 127.701 -53.9124 255 255 255
-3.96237 133.664 -57.4884 255 255 255
-3.96237 133.664 -57.4884 255 255 255
-15.4154 -21.4422 39.196 255 255 255
6.34306 33.5449 -80.9536 255 255 255
-3.88078 129.541 -54.4472 255 255 255
-14.8957 -4.78599 33.7573 255 255 255
-2.02148 145.543 -65.1871 255 255 255
-14.8771 -11.4772 35.7629 255 255 255
-14.1428 1.03994 29.1759 255 255 255
10.0435 103.026 -97.0461 255 255 255
-14.8339 -20.3412 38.1041 255 255 255
-3.2409 119.751 -51.7706 255 255 255
-3.2409 119.751 -51.7706 255 255 255
-2.62851 132.585 -56.9087 255 255 255
4.75715 21.8034 -64.8599 255 255 255
