ply
format ascii 1.0
element vertex 1273
property float x
property float y
property float z
property uchar red
property uchar green
property uchar blue
end_header
11.737 9.02837 -26.9561 255 255 255
11.737 9.02837 -26.9561 255 255 255
9.46105 24.7152 -51.6985 255 255 255
2.87818 21.4387 -45.3918 255 255 255
2.75301 21.5653 -45.7062 255 255 255
2.21799 21.4327 -45.4258 255 255 255
-10.6004 17.4572 -37.1067 255 255 255
2.04177 21.4152 -45.6082 255 255 255
1.80004 20.9487 -44.6371 255 255 255
1.76634 21.3847 -45.5571 255 255 255
1.78111 21.397 -45.6131 255 255 255
-6.91879 18.4295 -39.518 255 255 255
-12.3137 16.8109 -35.9565 255 255 255
2.10402 21.1298 -45.6158 255 255 255
15.0407 24.6403 -53.1067 255 255 255
14.4948 24.6219 -53.0408 255 255 255
9.69822 22.3879 -49.5944 255 255 255
10.3493 23.3908 -51.3736 255 255 255
17.6161 24.9971 -54.9038 255 255 255
19.3255 24.8077 -55.0578 255 255 255
19.3255 24.8077 -55.0578 255 255 255
19.4088 24.6567 -54.8574 255 255 255
9.03154 22.6095 -50.1286 255 255 255
22.3045 27.5215 -60.6581 255 255 255
-4.91357 18.7151 -41.6519 255 255 255
-11.8177 16.5668 -36.8998 255 255 255
13.0939 6.60144 -24.8316 255 255 255
12.1477 7.60773 -26.5647 255 255 255
17.9063 24.4584 -55.5928 255 255 255
16.4826 23.8645 -54.7987 255 255 255
15.1741 22.9809 -53.4484 255 255 255
13.5397 22.0916 -51.6861 255 255 255
12.8259 9.50642 -30.3966 255 255 255
12.9421 5.29115 -23.6631 255 255 255
6.32271 21.3482 -50.3401 255 255 255
19.5239 23.7541 -56.9713 255 255 255
13.0944 6.19272 -25.5675 255 255 255
12.7409 10.7985 -33.8123 255 255 255
-3.64148 18.2581 -43.6687 255 255 255
13.6777 10.2517 -33.3187 255 255 255
11.306 7.43638 -27.8821 255 255 255
11.9852 9.28942 -31.4842 255 255 255
1.70545 19.453 -47.5495 255 255 255
0.542615 18.9698 -46.9802 255 255 255
5.54941 20.1875 -50.2418 255 255 255
-9.09137 15.9674 -40.0927 255 255 255
1.54216 19.7608 -48.8816 255 255 255
13.0958 9.39548 -32.4261 255 255 255
5.84543 20.035 -50.6477 255 255 255
1.84639 19.1506 -48.3269 255 255 255
5.4137 20.0891 -50.9467 255 255 255
13.3809 9.19792 -33.2587 255 255 255
13.686 4.95205 -25.3619 255 255 255
12.247 6.7532 -28.572 255 255 255
12.846 7.04253 -29.4662 255 255 255
-3.14454 17.209 -45.3796 255 255 255
12.1089 9.62429 -34.5634 255 255 255
13.728 5.30356 -26.988 255 255 255
13.4923 5.29454 -26.9675 255 255 255
13.315 4.88107 -26.2773 255 255 255
-5.64025 16.4882 -43.8969 255 255 255
-11.8428 14.9085 -39.4987 255 255 255
15.5308 21.1052 -57.943 255 255 255
12.0465 6.43028 -29.0806 255 255 255
5.06597 18.8903 -51.503 255 255 255
14.1354 4.16852 -25.5446 255 255 255
13.9697 2.95117 -23.35 255 255 255
-9.69589 15.0769 -41.0826 255 255 255
13.885 3.97501 -25.5386 255 255 255
3.78741 18.2496 -51.4577 255 255 255
12.9413 3.70907 -24.9521 255 255 255
10.005 2.26184 -21.3158 255 255 255
-12.4008 14.1735 -39.1136 255 255 255
12.9933 8.7238 -35.3218 255 255 255
-7.75815 15.3255 -43.2582 255 255 255
-7.8104 15.4234 -43.2815 255 255 255
13.879 3.9125 -26.1479 255 255 255
11.7742 5.80836 -29.6971 255 255 255
-10.2723 14.455 -41.1638 255 255 255
7.97446 18.4004 -54.3078 255 255 255
14.5709 3.19679 -25.5693 255 255 255
-0.953521 16.2696 -48.5903 255 255 255
14.4176 1.46861 -22.1003 255 255 255
5.323 -0.0526605 -16.3473 255 255 255
13.5887 3.2582 -25.7999 255 255 255
1.81139 3.38477 -22.8573 255 255 255
12.8094 4.48333 -28.6377 255 255 255
-1.42622 16.2221 -49.5033 255 255 255
14.328 2.29221 -24.6411 255 255 255
-11.4881 13.5515 -41.0091 255 255 255
12.4935 4.02328 -27.7062 255 255 255
0.365768 16.486 -50.582 255 255 255
-9.80827 13.9111 -42.8018 255 255 255
-3.45212 15.0674 -47.6062 255 255 255
2.99716 2.08 -21.0173 255 255 255
-11.4629 13.3234 -41.0643 255 255 255
-10.6766 13.2746 -41.5578 255 255 255
-10.7305 13.2869 -41.383 255 255 255
13.2067 3.73393 -28.0737 255 255 255
13.4024 3.76008 -28.2094 255 255 255
3.03694 1.94071 -20.9058 255 255 255
-1.12704 15.3345 -48.7534 255 255 255
14.0328 2.63926 -26.2283 255 255 255
-12.9383 12.8407 -39.847 255 255 255
14.4454 1.27445 -23.61 255 255 255
2.65546 1.78156 -20.7173 255 255 255
-9.26028 12.6721 -41.2949 255 255 255
3.48736 16.2899 -53.6204 255 255 255
-0.580918 3.42926 -23.5755 255 255 255
-11.076 13.001 -41.8929 255 255 255
13.7781 2.88111 -27.5793 255 255 255
0.717695 15.7276 -51.9785 255 255 255
0.803455 2.0701 -21.2496 255 255 255
-12.79 12.2708 -39.9354 255 255 255
-0.90862 3.28858 -23.5605 255 255 255
-0.0375037 15.5819 -51.6712 255 255 255
6.69887 14.0398 -51.103 255 255 255
-10.9306 13.0398 -42.9113 255 255 255
12.803 3.11142 -28.4184 255 255 255
1.13871 1.43075 -20.3985 255 255 255
12.466 4.53294 -32.0142 255 255 255
12.3011 2.40886 -26.7783 255 255 255
-0.62192 2.35074 -22.0662 255 255 255
14.7427 1.49762 -26.0208 255 255 255
2.80029 1.12293 -20.3499 255 255 255
-0.0553858 1.93315 -21.3665 255 255 255
-0.934648 14.5904 -51.2625 255 255 255
-0.753381 2.14288 -22.0081 255 255 255
-0.511865 1.90833 -21.6636 255 255 255
3.91866 13.0581 -49.8355 255 255 255
-0.0707575 14.4127 -52.081 255 255 255
13.6163 1.59969 -26.7681 255 255 255
13.6163 1.59969 -26.7681 255 255 255
1.55874 0.848292 -20.0467 255 255 255
-1.43215 14.3875 -52.0908 255 255 255
-10.1042 11.5856 -42.2726 255 255 255
3.91972 0.591162 -20.7935 255 255 255
-1.61155 2.45638 -23.202 255 255 255
-11.203 12.0433 -43.5579 255 255 255
-9.94958 12.1946 -44.4549 255 255 255
-9.94958 12.1946 -44.4549 255 255 255
-9.40951 12.2851 -45.2574 255 255 255
-3.2472 13.3074 -50.3483 255 255 255
-10.5968 12.0332 -43.993 255 255 255
-3.48291 13.4866 -50.7507 255 255 255
2.36524 11.0639 -46.9664 255 255 255
2.59338 0.155494 -19.8444 255 255 255
0.7593 0.696598 -20.4789 255 255 255
13.951 1.06917 -27.0232 255 255 255
15.0232 0.192432 -25.93 255 255 255
4.34731 12.3894 -52.5658 255 255 255
14.3739 0.6317 -26.7319 255 255 255
-0.235399 0.910619 -21.0066 255 255 255
1.42311 0.328116 -20.279 255 255 255
13.9479 0.922165 -27.2765 255 255 255
-4.58687 12.8635 -50.1817 255 255 255
6.03426 -1.7659 -17.2756 255 255 255
-0.538807 0.909055 -21.2879 255 255 255
-1.85432 1.90539 -23.624 255 255 255
14.7107 0.493289 -27.6149 255 255 255
-0.170251 0.551718 -20.9271 255 255 255
3.85227 -0.114997 -21.0151 255 255 255
14.109 0.125185 -26.8288 255 255 255
14.9345 -0.125371 -26.4417 255 255 255
14.8764 -0.124875 -26.4412 255 255 255
-6.44776 11.6306 -48.2948 255 255 255
15.2303 -0.559962 -26.4289 255 255 255
-1.15828 0.754614 -21.8553 255 255 255
14.208 0.665674 -29.4732 255 255 255
-1.1254 1.30195 -23.4823 255 255 255
1.61264 -0.364196 -20.0675 255 255 255
-2.22865 2.02571 -25.0855 255 255 255
0.189925 -0.0834309 -20.6393 255 255 255
-3.48807 2.72801 -27.0802 255 255 255
15.1297 -0.734187 -27.0844 255 255 255
-2.69303 1.61 -24.3485 255 255 255
-2.58472 1.5872 -24.5195 255 255 255
2.43779 -0.718132 -20.4555 255 255 255
14.6246 -1.03021 -26.3987 255 255 255
-0.913474 0.219285 -21.5287 255 255 255
-2.61357 1.31102 -24.012 255 255 255
-0.828502 0.0982055 -21.3573 255 255 255
1.9437 -0.883878 -20.083 255 255 255
2.80633 -0.958425 -20.6355 255 255 255
-2.28888 0.939332 -23.5979 255 255 255
5.78885 -2.663 -17.6303 255 255 255
15.1749 -1.08306 -27.7328 255 255 255
15.1357 -1.20768 -27.5629 255 255 255
2.49589 -1.05315 -20.5377 255 255 255
2.94018 -1.44151 -19.916 255 255 255
5.52875 -3.08286 -16.8043 255 255 255
-3.96327 1.40932 -25.414 255 255 255
-2.8372 0.541923 -23.3965 255 255 255
14.9229 -2.1703 -25.8484 255 255 255
-3.16555 5.65753 -40.416 255 255 255
-1.86102 -0.224466 -22.0325 255 255 255
13.8622 -0.562944 -30.7146 255 255 255
0.933836 -1.22464 -20.5991 255 255 255
5.74756 -3.3394 -17.4049 255 255 255
-1.35615 -0.771023 -21.2397 255 255 255
-2.36331 -0.190051 -22.8373 255 255 255
15.6176 -2.52242 -27.2122 255 255 255
5.79114 -3.57737 -17.4574 255 255 255
-3.7307 0.0675384 -23.403 255 255 255
-8.27732 5.8303 -40.5608 255 255 255
14.3998 -1.95607 -29.6001 255 255 255
3.55079 -2.32392 -20.0097 255 255 255
3.95463 -2.44651 -20.3234 255 255 255
-3.57244 -0.104603 -23.3011 255 255 255
-3.7265 -0.17818 -23.0703 255 255 255
-3.61846 -0.183902 -23.1922 255 255 255
4.03665 -2.57133 -20.203 255 255 255
-3.66188 -0.220633 -23.2144 255 255 255
-1.7638 -1.03293 -21.6695 255 255 255
3.17412 -2.80587 -19.0807 255 255 255
15.2537 -3.31321 -27.0695 255 255 255
15.3975 -3.48076 -26.9913 255 255 255
15.5785 -3.75239 -26.4433 255 255 255
-5.29311 3.27212 -36.8218 255 255 255
-5.27072 3.32156 -36.6113 255 255 255
-2.45108 -1.41627 -21.5422 255 255 255
-3.15238 -1.08334 -22.2634 255 255 255
-3.15021 -1.06434 -22.4901 255 255 255
0.93735 -2.67359 -19.8938 255 255 255
3.18474 -3.29674 -19.5824 255 255 255
4.04129 -3.18787 -20.6598 255 255 255
4.04129 -3.18787 -20.6598 255 255 255
-2.86078 -1.49267 -21.5537 255 255 255
0.651304 -2.88718 -19.5577 255 255 255
-1.96873 -1.94498 -21.0694 255 255 255
0.976007 -2.96316 -19.4446 255 255 255
4.45292 -3.34953 -21.2307 255 255 255
-1.71866 -2.10659 -20.8532 255 255 255
-0.518109 -2.66943 -20.1369 255 255 255
-7.09251 2.35144 -35.2681 255 255 255
-3.39999 -1.3517 -23.594 255 255 255
-0.639819 -2.75574 -20.3262 255 255 255
1.64285 -3.35806 -20.1301 255 255 255
1.61921 -3.34669 -20.0627 255 255 255
0.827897 -3.30048 -19.6396 255 255 255
1.5517 -3.48712 -20.0473 255 255 255
-6.26072 0.584575 -30.7168 255 255 255
1.60634 -3.5531 -20.2486 255 255 255
-10.0124 2.08726 -35.3644 255 255 255
-2.22778 -2.42821 -21.8484 255 255 255
0.741543 -3.56287 -19.8137 255 255 255
-0.189526 -3.2097 -20.5482 255 255 255
-1.7268 -2.68826 -21.3661 255 255 255
3.79528 -4.0459 -21.1575 255 255 255
-1.74388 -2.69472 -21.5119 255 255 255
0.811832 -3.61924 -20.0487 255 255 255
0.61604 -3.54316 -20.232 255 255 255
-1.94706 -2.69634 -21.707 255 255 255
3.67113 -4.06672 -21.1112 255 255 255
0.250799 -3.32856 -21.2265 255 255 255
-2.03715 -2.705 -21.8822 255 255 255
-7.98642 0.860571 -33.3464 255 255 255
11.4978 -5.3079 -25.3936 255 255 255
-6.64403 0.363915 -32.7534 255 255 255
-7.97658 0.0470007 -29.9832 255 255 255
-7.97658 0.0470007 -29.9832 255 255 255
4.86421 -4.42312 -22.1466 255 255 255
5.05911 -4.36363 -22.5498 255 255 255
0.704746 -3.86162 -20.1461 255 255 255
3.70499 -4.31442 -21.3998 255 255 255
-0.0560781 -3.63418 -20.8212 255 255 255
-7.01009 0.124878 -32.3664 255 255 255
2.83718 -4.42311 -20.6181 255 255 255
-0.664553 -3.57877 -21.2444 255 255 255
1.53328 -4.3056 -20.7684 255 255 255
-6.62265 -0.369284 -31.9642 255 255 255
-2.07087 -3.21571 -22.3464 255 255 255
-7.58412 -0.212357 -32.3968 255 255 255
0.0308265 -4.06347 -21.0201 255 255 255
1.95002 -4.54561 -20.8407 255 255 255
-3.34236 -2.73861 -24.2659 255 255 255
0.0832483 -4.09113 -21.2008 255 255 255
-3.3301 -2.82038 -24.2891 255 255 255
0.148186 -4.19676 -21.204 255 255 255
-3.17832 -2.94247 -24.0777 255 255 255
-7.12339 -0.866585 -31.4379 255 255 255
-7.1294 -0.847354 -31.385 255 255 255
-7.36798 -0.788516 -31.8315 255 255 255
0.883554 -4.50142 -21.1614 255 255 255
-7.24426 -0.863584 -31.4479 255 255 255
1.71085 -4.63736 -21.2554 255 255 255
-8.40175 -0.843195 -30.9081 255 255 255
0.617247 -4.50178 -20.9519 255 255 255
-8.12508 -0.966531 -30.821 255 255 255
-1.83252 -3.64009 -24.1017 255 255 255
-2.29055 -3.70687 -22.737 255 255 255
-1.86585 -3.89405 -22.3606 255 255 255
-10.6797 -0.428672 -31.6798 255 255 255
0.393438 -4.55631 -21.5332 255 255 255
4.33394 -5.89995 -20.6738 255 255 255
-7.60328 -1.51779 -30.4398 255 255 255
-2.48683 -3.71411 -23.5579 255 255 255
-2.58008 -3.75651 -23.505 255 255 255
-2.25619 -3.95694 -22.9987 255 255 255
-2.25619 -3.95694 -22.9987 255 255 255
-9.28379 -1.23712 -30.9781 255 255 255
-6.82816 -2.22213 -29.6398 255 255 255
-9.01942 -1.6778 -29.9924 255 255 255
-8.7533 -1.73744 -30.3713 255 255 255
5.60613 -6.36642 -22.0501 255 255 255
2.87679 -5.87975 -20.9098 255 255 255
-3.01724 -4.11371 -24.1016 255 255 255
0.772213 -5.32178 -21.4649 255 255 255
-6.79324 -2.88724 -28.4175 255 255 255
0.358481 -5.34132 -22.1226 255 255 255
-7.79455 -2.56836 -29.2324 255 255 255
-6.79905 -2.96951 -28.4642 255 255 255
0.779401 -5.83006 -21.2413 255 255 255
-3.64725 -4.47957 -23.7929 255 255 255
0.65578 -5.88776 -21.0945 255 255 255
-7.70542 -3.02775 -29.7221 255 255 255
-3.40378 -4.69789 -23.6063 255 255 255
-3.62303 -4.85475 -24.2675 255 255 255
3.15268 -7.26998 -20.1873 255 255 255
-8.63854 -3.75498 -27.7048 255 255 255
-7.13074 -4.24406 -27.08 255 255 255
-8.76211 -3.87625 -27.0694 255 255 255
-8.83872 -4.00908 -26.8693 255 255 255
2.69676 -8.09514 -19.1517 255 255 255
3.75987 -8.85859 -20.164 255 255 255
3.92832 -8.92786 -20.1862 255 255 255
2.2924 -8.73331 -18.1287 255 255 255
2.31436 -8.74821 -18.0879 255 255 255
-4.50219 -6.70743 -23.0489 255 255 255
0.130303 -8.13294 -20.7739 255 255 255
0.175494 -8.23899 -20.6288 255 255 255
0.467228 -8.49603 -20.2447 255 255 255
0.738685 26.224 -40.402 255 255 255
3.16494 26.8136 -41.1045 255 255 255
10.0454 28.7504 -43.7357 255 255 255
3.55866 26.8764 -41.2894 255 255 255
11.1597 28.7396 -43.9926 255 255 255
12.9413 30.469 -46.5431 255 255 255
9.65195 28.9231 -44.3563 255 255 255
4.37645 27.2756 -42.4465 255 255 255
8.19333 28.4501 -44.5342 255 255 255
0.560139 25.1021 -40.6618 255 255 255
0.559802 25.1251 -40.6653 255 255 255
12.1639 29.3542 -47.0165 255 255 255
12.7913 29.7586 -47.7155 255 255 255
12.4959 29.4965 -47.4241 255 255 255
12.3887 28.1657 -45.2859 255 255 255
13.9062 30.2707 -48.4549 255 255 255
8.3738 27.6711 -44.8752 255 255 255
9.76426 28.6616 -46.3914 255 255 255
9.76197 28.5813 -45.9792 255 255 255
0.1541 24.7146 -40.3601 255 255 255
0.869588 24.9474 -40.7291 255 255 255
10.6685 28.5955 -46.0374 255 255 255
-5.71697 21.3344 -35.7343 255 255 255
15.8109 30.3141 -49.133 255 255 255
4.66106 26.2073 -42.8959 255 255 255
11.6151 16.3672 -30.6366 255 255 255
-10.4475 20.9201 -35.0099 255 255 255
-9.69013 18.4291 -31.9962 255 255 255
5.192 26.2223 -43.3667 255 255 255
4.7354 26.1224 -43.4205 255 255 255
6.50975 26.6434 -44.1574 255 255 255
11.7731 11.3224 -24.203 255 255 255
1.89675 25.0446 -41.9524 255 255 255
1.48673 24.7479 -41.621 255 255 255
13.3531 27.5424 -46.2317 255 255 255
4.09641 25.6286 -43.1574 255 255 255
-5.27299 22.1103 -37.6359 255 255 255
3.1169 25.3267 -42.6966 255 255 255
9.06328 7.14953 -18.811 255 255 255
12.736 9.44786 -22.4448 255 255 255
13.4727 9.52507 -22.3518 255 255 255
2.74563 25.0814 -42.3619 255 255 255
8.28274 26.8094 -45.3539 255 255 255
-12.3214 19.5209 -33.7373 255 255 255
-11.9192 19.6756 -33.9438 255 255 255
8.7575 6.58657 -18.1184 255 255 255
9.4828 7.64664 -19.7465 255 255 255
-0.101032 24.1012 -40.9954 255 255 255
-0.119412 23.9225 -40.8116 255 255 255
-6.75044 21.4129 -36.8401 255 255 255
5.69264 26.281 -44.5772 255 255 255
3.4517 2.81061 -12.7061 255 255 255
12.9695 10.0383 -23.2798 255 255 255
5.33004 26.0345 -44.2203 255 255 255
8.87894 7.91468 -20.1169 255 255 255
13.4741 9.58636 -22.7905 255 255 255
4.64042 4.37817 -14.9913 255 255 255
-10.4901 19.9154 -34.9553 255 255 255
-6.36803 21.3503 -37.14 255 255 255
9.19723 28.4094 -48.3119 255 255 255
9.19723 28.4094 -48.3119 255 255 255
4.74297 25.6005 -44.1486 255 255 255
13.605 11.2843 -25.6538 255 255 255
-10.6843 19.7097 -34.6366 255 255 255
-8.69505 20.4505 -35.9442 255 255 255
-0.850507 23.5055 -40.915 255 255 255
-0.0840266 23.6819 -41.3009 255 255 255
8.75262 26.5687 -46.1174 255 255 255
5.43725 25.4613 -44.4808 255 255 255
5.53003 25.6543 -44.7749 255 255 255
7.69042 26.4973 -46.3995 255 255 255
-12.0727 18.998 -34.0785 255 255 255
8.25664 26.3727 -46.4364 255 255 255
9.78751 27.9385 -48.8232 255 255 255
7.8792 26.185 -46.3114 255 255 255
16.6968 28.9458 -50.9967 255 255 255
12.5819 13.4462 -28.8472 255 255 255
-0.81391 23.1467 -41.398 255 255 255
-0.868543 23.0063 -41.1192 255 255 255
1.45717 23.793 -42.4384 255 255 255
14.2565 14.1711 -30.1043 255 255 255
3.49033 24.5433 -43.753 255 255 255
9.41723 26.2199 -46.7973 255 255 255
12.0425 27.2227 -48.6656 255 255 255
-9.1807 19.7982 -36.1545 255 255 255
13.3043 27.6325 -49.8805 255 255 255
16.0502 27.9803 -50.8345 255 255 255
0.424817 23.1698 -42.5037 255 255 255
20.9842 28.6398 -52.5267 255 255 255
21.1244 28.6823 -52.6731 255 255 255
11.8515 26.7143 -49.2328 255 255 255
-4.55205 21.334 -39.8148 255 255 255
-1.08717 22.1723 -41.7205 255 255 255
-1.06746 22.1439 -41.7344 255 255 255
12.596 26.5736 -49.5184 255 255 255
13.7901 8.80399 -24.0163 255 255 255
13.4161 8.61076 -23.5608 255 255 255
11.9331 25.9466 -48.6605 255 255 255
12.3389 26.5763 -49.5292 255 255 255
11.5165 26.3789 -49.3754 255 255 255
19.0864 28.769 -53.4233 255 255 255
-2.9253 21.4949 -40.6609 255 255 255
24.4629 31.2884 -58.2838 255 255 255
0.0589345 22.5112 -42.8692 255 255 255
0.369693 22.5884 -42.962 255 255 255
12.4881 26.3314 -49.7215 255 255 255
17.7856 27.7799 -52.4003 255 255 255
27.7545 32.624 -60.7606 255 255 255
12.5887 12.0263 -28.7287 255 255 255
12.6395 26.2173 -49.8948 255 255 255
13.5637 25.3617 -48.846 255 255 255
9.79711 25.5736 -48.7078 255 255 255
0.761446 22.4411 -43.2497 255 255 255
-9.25476 22.0631 -41.1173 255 255 255
-8.72501 19.1752 -37.1193 255 255 255
13.3025 26.2042 -50.2595 255 255 255
8.23358 24.3246 -47.3309 255 255 255
4.88497 23.3985 -45.7644 255 255 255
0.323774 22.1056 -43.322 255 255 255
14.4041 25.72 -50.339 255 255 255
-8.37653 21.6023 -41.3291 255 255 255
-8.00419 19.3121 -37.9751 255 255 255
-5.90049 20.1058 -39.676 255 255 255
-0.351508 21.7804 -42.9452 255 255 255
12.6005 13.3416 -31.8599 255 255 255
12.6505 11.7327 -29.4284 255 255 255
-11.4809 17.9997 -35.9089 255 255 255
-11.4228 17.9313 -35.8401 255 255 255
-3.77121 20.5898 -40.9587 255 255 255
8.17285 24.1243 -48.1056 255 255 255
-7.87179 18.3046 -37.1685 255 255 255
-7.68115 19.1096 -38.4865 255 255 255
9.42936 24.1502 -48.6093 255 255 255
10.1587 25.2084 -50.2444 255 255 255
0.0422027 21.6296 -43.6572 255 255 255
-8.58688 18.8277 -38.3066 255 255 255
-2.66423 20.7258 -41.9707 255 255 255
-0.327864 21.4939 -43.4839 255 255 255
6.12813 23.042 -46.7971 255 255 255
7.22956 23.5149 -47.7436 255 255 255
-0.35551 21.9398 -44.3411 255 255 255
-0.600366 21.2629 -43.3117 255 255 255
-7.76715 18.9201 -38.6772 255 255 255
2.89862 22.182 -45.3568 255 255 255
6.97569 23.3517 -47.9261 255 255 255
6.97569 23.3517 -47.9261 255 255 255
-1.68037 20.686 -42.7099 255 255 255
-13.8968 16.567 -34.4131 255 255 255
-13.9582 16.6411 -34.4991 255 255 255
15.5107 24.9457 -51.8879 255 255 255
15.2323 24.9663 -51.623 255 255 255
-2.1671 20.509 -42.5689 255 255 255
4.5706 22.6142 -46.7634 255 255 255
4.5298 22.5577 -46.6083 255 255 255
19.9024 25.9867 -54.1548 255 255 255
-13.9954 16.4869 -34.3422 255 255 255
-7.65741 18.7517 -39.2781 255 255 255
12.604 6.98474 -23.6946 255 255 255
-7.87727 18.6939 -39.1429 255 255 255
22.0005 28.4468 -58.8014 255 255 255
12.7775 24.5854 -51.424 255 255 255
8.34285 24.4008 -50.9787 255 255 255
7.50026 22.8008 -48.1406 255 255 255
7.6089 22.909 -48.3677 255 255 255
-13.4556 16.4434 -34.8512 255 255 255
-0.924899 20.651 -44.1039 255 255 255
1.24323 21.3203 -45.1691 255 255 255
13.6673 24.2451 -51.6558 255 255 255
13.8904 24.4143 -51.8756 255 255 255
13.4982 24.0219 -51.1737 255 255 255
16.2381 25.248 -53.4936 255 255 255
-12.9539 16.5609 -35.294 255 255 255
1.50686 21.3472 -45.5612 255 255 255
12.9679 6.01688 -22.7087 255 255 255
8.13702 22.9636 -49.4052 255 255 255
0.305229 20.7783 -44.8939 255 255 255
18.5678 25.6123 -55.1174 255 255 255
24.5562 28.5407 -61.0796 255 255 255
17.7423 25.2701 -54.6387 255 255 255
24.6486 29.0766 -62.4307 255 255 255
-3.42324 19.5526 -42.4854 255 255 255
1.55885 21.1288 -45.8337 255 255 255
1.26043 20.9167 -45.5867 255 255 255
18.2363 24.049 -53.2798 255 255 255
20.1446 26.0085 -56.6097 255 255 255
15.1729 24.4608 -53.5099 255 255 255
14.4187 24.3563 -53.5251 255 255 255
12.5662 23.7834 -52.4537 255 255 255
13.179 6.7182 -24.7939 255 255 255
13.179 6.7182 -24.7939 255 255 255
-13.0047 16.1649 -35.8299 255 255 255
12.8745 10.1425 -30.523 255 255 255
2.09239 20.3837 -46.6158 255 255 255
2.07752 20.2989 -46.9548 255 255 255
10.8723 22.6126 -52.2261 255 255 255
12.3334 11.1386 -33.078 255 255 255
-3.55304 18.7716 -43.4228 255 255 255
8.24212 21.5083 -50.2454 255 255 255
-3.92815 18.6388 -43.1566 255 255 255
8.00466 21.7342 -50.7504 255 255 255
11.3764 23.3995 -54.7534 255 255 255
10.5789 22.5838 -53.4192 255 255 255
-13.7092 12.5901 -31.4799 255 255 255
-1.01786 19.2083 -45.7378 255 255 255
-1.17743 19.5129 -46.4679 255 255 255
-5.16554 17.2064 -42.5582 255 255 255
13.3999 9.55599 -32.3525 255 255 255
13.2319 10.0603 -33.1293 255 255 255
-4.10161 17.8899 -43.9617 255 255 255
12.0537 6.61203 -27.199 255 255 255
13.1357 10.456 -34.5098 255 255 255
-9.93181 16.0221 -40.1054 255 255 255
14.5105 9.505 -33.1301 255 255 255
12.4286 7.49076 -29.2417 255 255 255
7.77224 19.6772 -50.4109 255 255 255
4.08292 19.3268 -49.1674 255 255 255
9.59222 21.45 -54.6911 255 255 255
8.47132 21.5024 -54.6628 255 255 255
-12.4907 14.8479 -37.4684 255 255 255
-12.517 14.9942 -37.6556 255 255 255
-12.5487 15.0276 -37.6918 255 255 255
14.6054 9.40461 -33.6205 255 255 255
-9.49624 16.0138 -40.5452 255 255 255
-9.47814 15.9744 -40.4468 255 255 255
8.10034 20.7757 -53.5996 255 255 255
-5.09783 17.1307 -43.6742 255 255 255
-5.09783 17.1307 -43.6742 255 255 255
4.40748 18.8947 -49.569 255 255 255
10.3487 20.7547 -53.7858 255 255 255
15.3747 21.885 -57.4972 255 255 255
13.9214 3.42147 -22.964 255 255 255
12.5979 10.8088 -36.5623 255 255 255
-3.44022 17.2915 -45.2381 255 255 255
10.6771 20.608 -54.7451 255 255 255
10.6991 20.6129 -54.6518 255 255 255
-2.84966 17.6143 -45.9692 255 255 255
-2.8604 17.4706 -45.8887 255 255 255
-2.87915 17.3792 -45.5617 255 255 255
0.263567 17.8391 -47.3058 255 255 255
12.4979 9.79941 -34.9276 255 255 255
9.2803 20.2152 -54.0174 255 255 255
6.76447 19.5945 -52.3812 255 255 255
11.1146 6.17677 -27.7998 255 255 255
12.6538 6.75515 -29.5644 255 255 255
10.4004 20.1852 -54.9331 255 255 255
13.9893 2.95084 -23.1091 255 255 255
4.57744 18.5803 -51.0246 255 255 255
-9.50358 15.2974 -41.4756 255 255 255
12.0839 6.16257 -29.2478 255 255 255
11.6338 20.0206 -56.5487 255 255 255
4.6124 18.3221 -51.4186 255 255 255
4.09304 18.2408 -51.3908 255 255 255
1.75151 17.8161 -50.1356 255 255 255
9.44183 19.781 -55.8848 255 255 255
13.1927 8.96276 -35.5292 255 255 255
13.5784 9.18493 -36.0636 255 255 255
13.4712 8.91107 -35.5895 255 255 255
10.0521 19.4407 -55.7834 255 255 255
13.9882 8.37872 -35.0538 255 255 255
0.126808 17.1114 -49.4445 255 255 255
3.79119 17.6499 -51.5215 255 255 255
0.28086 16.9669 -49.1151 255 255 255
0.272192 17.0008 -49.1601 255 255 255
13.8208 3.64386 -26.2217 255 255 255
-5.17129 15.7021 -45.5735 255 255 255
0.242114 17.387 -50.6907 255 255 255
13.8962 3.29092 -25.6075 255 255 255
13.7985 7.97917 -35.642 255 255 255
5.40223 -0.516401 -15.6417 255 255 255
-9.13441 13.2667 -40.3885 255 255 255
12.9941 7.23302 -33.899 255 255 255
-8.04524 14.3465 -43.532 255 255 255
-4.74286 15.1078 -46.3987 255 255 255
-4.74286 15.1078 -46.3987 255 255 255
14.4062 2.52912 -25.5906 255 255 255
-10.341 13.9284 -42.4939 255 255 255
0.188034 3.12974 -22.2855 255 255 255
0.084211 3.12307 -22.2202 255 255 255
-11.0134 13.624 -41.6522 255 255 255
-11.044 13.6261 -41.6839 255 255 255
-11.6498 13.2663 -41.1827 255 255 255
-10.6304 13.3618 -41.8165 255 255 255
0.0961023 16.0424 -50.9021 255 255 255
14.1603 2.43394 -25.755 255 255 255
2.70511 1.70239 -20.6601 255 255 255
-11.8702 13.2076 -41.7251 255 255 255
-7.91997 13.8514 -44.4794 255 255 255
14.2029 2.49173 -26.4522 255 255 255
14.245 2.51905 -26.5862 255 255 255
-0.825752 15.3333 -50.3629 255 255 255
-0.509427 2.93633 -22.6188 255 255 255
14.5775 1.9897 -25.8622 255 255 255
-8.99294 13.6496 -44.1048 255 255 255
0.816007 15.6318 -52.0911 255 255 255
-0.0630101 2.07322 -21.3929 255 255 255
3.71818 14.4881 -51.5817 255 255 255
13.94 1.37344 -25.1699 255 255 255
6.41598 13.0159 -49.3146 255 255 255
-0.683828 2.42103 -22.238 255 255 255
14.3056 1.8348 -26.9912 255 255 255
-1.32965 2.75003 -23.2076 255 255 255
14.9351 0.80107 -25.6112 255 255 255
-4.46186 13.4497 -48.804 255 255 255
-1.4837 2.49199 -23.2979 255 255 255
-3.40883 13.7987 -50.1592 255 255 255
3.73067 0.568604 -20.6736 255 255 255
13.1095 2.88449 -30.2913 255 255 255
3.34337 0.191721 -19.9873 255 255 255
-6.95518 12.2669 -47.4979 255 255 255
0.251374 0.668303 -20.3963 255 255 255
0.251374 0.668303 -20.3963 255 255 255
-1.54692 3.4403 -26.9738 255 255 255
-1.89376 2.28455 -23.9104 255 255 255
-5.63616 12.1344 -48.9664 255 255 255
13.5719 0.894576 -29.0881 255 255 255
1.20052 -0.244568 -20.3617 255 255 255
14.9359 -1.4365 -24.3508 255 255 255
15.0558 -1.39222 -25.0982 255 255 255
5.88303 -2.53634 -17.5186 255 255 255
-0.936961 -0.0162758 -21.3775 255 255 255
3.34542 -1.26919 -20.4288 255 255 255
6.33618 -1.49517 -21.3601 255 255 255
3.43445 -1.39806 -20.3742 255 255 255
14.8842 -1.22012 -27.7234 255 255 255
0.025932 -0.492224 -21.261 255 255 255
-3.55313 1.34548 -25.2243 255 255 255
14.0683 -0.695659 -29.5925 255 255 255
14.4877 -1.30144 -29.7093 255 255 255
14.9762 -2.4995 -27.1472 255 255 255
-3.84621 0.0182014 -23.3532 255 255 255
14.4183 -2.02992 -29.4913 255 255 255
3.55505 -2.64469 -19.583 255 255 255
-2.91194 -0.514163 -22.8008 255 255 255
5.99066 -3.69048 -18.3442 255 255 255
5.99066 -3.69048 -18.3442 255 255 255
0.838336 -2.12485 -19.969 255 255 255
0.621528 -1.97823 -20.0745 255 255 255
0.658117 -2.0037 -20.1086 255 255 255
6.46077 -3.56998 -19.4779 255 255 255
-3.4384 -0.52241 -22.8529 255 255 255
15.3068 -3.22342 -27.5487 255 255 255
-3.11073 -0.950413 -22.2776 255 255 255
4.37125 -3.12102 -20.7919 255 255 255
-4.04369 -0.716669 -23.403 255 255 255
-2.54151 -1.60015 -21.3804 255 255 255
-4.70697 2.4537 -36.2116 255 255 255
-3.95477 -0.760104 -23.9886 255 255 255
1.03591 -2.92539 -19.6026 255 255 255
1.32029 -2.91202 -20.0622 255 255 255
14.218 -4.204 -26.4876 255 255 255
-0.762283 -2.52994 -20.1711 255 255 255
-2.89918 -1.79305 -21.5137 255 255 255
-0.995351 -2.49001 -20.0884 255 255 255
0.818104 -3.06346 -19.4433 255 255 255
-7.96068 2.6801 -36.2889 255 255 255
-0.560002 -2.69133 -20.1741 255 255 255
-5.13922 1.59721 -35.0857 255 255 255
0.620018 -3.16327 -19.8334 255 255 255
-6.38243 1.59352 -34.6297 255 255 255
2.91042 -3.59355 -20.3366 255 255 255
2.8249 -3.69278 -20.1066 255 255 255
-6.0294 1.3873 -34.3585 255 255 255
-2.01481 -2.41777 -21.5508 255 255 255
-0.537843 -3.00895 -20.5245 255 255 255
-5.89945 0.875547 -33.6445 255 255 255
-2.62997 -2.2976 -22.2243 255 255 255
-2.61947 -2.29335 -22.2979 255 255 255
-6.09946 0.854801 -33.2966 255 255 255
-0.351649 -3.16311 -20.5197 255 255 255
0.728967 -3.62914 -19.8066 255 255 255
-6.72851 0.0471413 -30.1001 255 255 255
2.73994 -4.02294 -20.4877 255 255 255
-3.18281 -2.07157 -23.5382 255 255 255
-0.214494 -3.27723 -20.6639 255 255 255
0.034186 -3.43127 -20.4957 255 255 255
-11.8164 1.91376 -34.923 255 255 255
-1.17506 -3.18204 -21.1657 255 255 255
2.95671 -4.50313 -20.282 255 255 255
-7.21422 0.0710259 -32.6838 255 255 255
0.859991 -4.10828 -20.2149 255 255 255
2.80461 -4.44132 -20.9709 255 255 255
-3.53641 -2.39213 -24.0694 255 255 255
-7.10867 -0.102687 -32.1552 255 255 255
-5.64118 -0.649668 -31.4146 255 255 255
-6.61806 -0.249315 -32.2821 255 255 255
-1.18536 -3.5653 -21.2304 255 255 255
-1.85627 -3.22192 -22.2086 255 255 255
-1.9832 -3.21377 -22.1998 255 255 255
5.24588 -5.07088 -22.0163 255 255 255
-0.93528 -3.74835 -21.4252 255 255 255
0.748413 -4.31188 -20.9016 255 255 255
-9.04082 -0.099083 -32.3349 255 255 255
-1.92731 -3.49192 -22.322 255 255 255
-2.86778 -3.11107 -23.1338 255 255 255
-3.07984 -2.89979 -24.4221 255 255 255
-8.32265 -0.503206 -31.8378 255 255 255
-2.07428 -3.55932 -22.5392 255 255 255
2.37294 -4.80373 -21.3139 255 255 255
1.49131 -4.67231 -21.0713 255 255 255
-0.484576 -4.12062 -21.3218 255 255 255
1.80267 -4.84055 -21.1863 255 255 255
-8.30333 -0.907503 -31.2843 255 255 255
1.91361 -4.90487 -21.3015 255 255 255
-1.84508 -3.92394 -22.5937 255 255 255
-2.41131 -3.89124 -23.2924 255 255 255
-8.12067 -1.56195 -30.3993 255 255 255
-7.90097 -1.59737 -30.4626 255 255 255
-8.84948 -1.37098 -30.557 255 255 255
0.637009 -5.04571 -21.5042 255 255 255
-1.33078 -4.71253 -22.1017 255 255 255
0.982422 -5.38933 -21.4232 255 255 255
-6.7521 -2.68832 -28.6363 255 255 255
-7.23975 -2.44793 -29.32 255 255 255
-11.0837 -1.49162 -30.452 255 255 255
-7.08875 -2.91613 -28.6535 255 255 255
-6.75523 -3.17864 -28.0584 255 255 255
3.83074 -6.85617 -21.4962 255 255 255
-3.54828 -5.08533 -24.0096 255 255 255
4.30388 -7.81998 -21.2859 255 255 255
-8.82267 -4.28122 -26.7781 255 255 255
2.57317 -8.22917 -19.1733 255 255 255
2.47207 -8.21648 -21.2847 255 255 255
2.25059 -8.24491 -22.0528 255 255 255
1.82879 -8.17954 -21.2035 255 255 255
3.08924 -8.90421 -19.6246 255 255 255
1.7302 -8.74999 -21.3367 255 255 255
0.346499 -8.17185 -20.6918 255 255 255
1.18877 -8.64762 -23.1288 255 255 255
1.98526 -8.86938 -19.8716 255 255 255
0.892555 -8.68398 -22.5651 255 255 255
0.409015 -8.36439 -20.4806 255 255 255
2.72666 26.5605 -40.7892 255 255 255
1.98348 26.5666 -40.976 255 255 255
8.93945 29.457 -45.11 255 255 255
13.8416 29.6116 -45.2617 255 255 255
8.16123 28.4692 -43.9536 255 255 255
5.05504 27.0498 -43.0888 255 255 255
14.2756 30.1501 -47.3651 255 255 255
4.75885 27.941 -44.1335 255 255 255
4.21306 26.5682 -42.5979 255 255 255
14.4147 30.7932 -48.529 255 255 255
14.1286 30.3928 -48.1056 255 255 255
12.0792 29.5411 -46.9894 255 255 255
0.817035 25.4091 -41.2271 255 255 255
6.66098 27.3214 -44.0937 255 255 255
-0.464391 24.5504 -40.2288 255 255 255
11.6305 16.2489 -30.0789 255 255 255
9.84716 28.2571 -45.7715 255 255 255
5.44724 26.6285 -43.5158 255 255 255
-0.762518 24.2612 -39.8407 255 255 255
5.0305 26.5026 -43.2612 255 255 255
13.1292 10.2919 -22.9101 255 255 255
1.5259 25.0644 -41.4092 255 255 255
12.4708 15.9835 -30.1456 255 255 255
-1.61388 23.9664 -40.0807 255 255 255
12.2255 16.5826 -31.219 255 255 255
14.3354 17.2159 -32.6093 255 255 255
-10.5472 19.8396 -33.803 255 255 255
-9.66258 20.449 -34.8729 255 255 255
6.15246 26.5044 -44.2836 255 255 255
6.82913 27.8359 -46.0024 255 255 255
12.8545 15.0329 -29.3881 255 255 255
0.460208 24.4301 -41.1534 255 255 255
-4.05182 22.9148 -38.8526 255 255 255
11.9153 10.8441 -24.163 255 255 255
12.9202 9.04411 -21.9843 255 255 255
-3.88843 22.7787 -38.8408 255 255 255
0.898653 24.3979 -41.4616 255 255 255
7.11022 26.7079 -45.2068 255 255 255
14.2425 10.2164 -23.9017 255 255 255
8.68864 26.8768 -45.5492 255 255 255
0.783286 24.4072 -41.9291 255 255 255
2.90371 24.8817 -42.7228 255 255 255
6.07719 25.9909 -44.5797 255 255 255
7.37732 26.5284 -45.5484 255 255 255
0.414319 23.9591 -41.4533 255 255 255
-3.15235 22.9642 -39.8431 255 255 255
-0.290512 23.7017 -41.06 255 255 255
5.33985 25.6639 -44.263 255 255 255
13.546 9.39081 -23.0589 255 255 255
0.395689 23.763 -41.7243 255 255 255
0.998465 24.2334 -42.4445 255 255 255
-11.4863 19.2452 -34.4729 255 255 255
4.96247 25.1663 -44.5749 255 255 255
5.04923 25.2452 -44.7144 255 255 255
-12.927 18.6775 -33.7376 255 255 255
-10.5153 19.4709 -35.1033 255 255 255
-10.5107 19.4221 -34.9465 255 255 255
0.372276 23.5307 -41.9502 255 255 255
-0.344592 23.1315 -41.4256 255 255 255
14.3749 27.9717 -49.4456 255 255 255
18.248 28.2789 -50.4308 255 255 255
5.53807 25.3966 -45.433 255 255 255
8.86679 26.2304 -46.79 255 255 255
22.3455 29.6174 -52.9209 255 255 255
-4.13149 21.6906 -39.1342 255 255 255
-4.08721 21.9266 -39.5132 255 255 255
1.71858 24.5276 -43.9427 255 255 255
17.6519 28.7802 -51.3951 255 255 255
16.7671 27.6511 -49.6831 255 255 255
9.54503 25.8274 -46.6561 255 255 255
9.54503 25.8274 -46.6561 255 255 255
-11.3305 19.1702 -35.2117 255 255 255
11.8182 26.4713 -48.1219 255 255 255
12.3035 27.0408 -48.9584 255 255 255
11.5529 27.074 -49.1732 255 255 255
11.0791 25.9946 -47.3807 255 255 255
11.7566 26.9453 -48.9359 255 255 255
17.1472 28.8081 -52.0117 255 255 255
1.05939 23.0238 -42.9778 255 255 255
1.10501 23.1693 -43.1174 255 255 255
9.88482 25.9326 -48.1557 255 255 255
-11.0593 18.3318 -34.8107 255 255 255
-1.62543 22.0577 -41.6692 255 255 255
-3.01827 21.3751 -40.8108 255 255 255
15.1911 26.3792 -49.9528 255 255 255
4.30518 23.6224 -45.0919 255 255 255
-9.1165 19.2368 -37.1803 255 255 255
-9.12315 19.0109 -36.698 255 255 255
9.29475 24.9761 -48.0287 255 255 255
12.7942 26.0244 -49.855 255 255 255
14.9763 26.3715 -50.7552 255 255 255
14.8442 26.1065 -50.2987 255 255 255
-2.19699 21.4471 -41.4659 255 255 255
10.8346 11.7777 -28.7856 255 255 255
4.48522 23.4971 -45.5694 255 255 255
4.23776 23.0102 -44.6942 255 255 255
8.58258 24.5298 -47.6755 255 255 255
-10.3745 18.276 -35.9646 255 255 255
-10.3745 18.276 -35.9646 255 255 255
-10.3156 18.2516 -35.8927 255 255 255
9.5054 25.073 -49.0308 255 255 255
-2.645 21.1452 -41.6134 255 255 255
12.7749 11.2521 -28.5537 255 255 255
-3.17554 20.9505 -41.376 255 255 255
-2.96433 20.9059 -41.4377 255 255 255
-12.8403 17.3386 -34.7098 255 255 255
0.289442 21.8748 -43.6121 255 255 255
7.70841 24.0775 -48.0429 255 255 255
-7.39786 19.4304 -39.047 255 255 255
8.73197 24.1586 -48.5006 255 255 255
-7.99428 19.1106 -38.6881 255 255 255
-7.96469 19.1332 -38.8958 255 255 255
-1.84193 21.0066 -42.4728 255 255 255
13.6017 8.43073 -25.2291 255 255 255
-4.56597 20.0307 -40.5489 255 255 255
-2.42998 20.6674 -42.0242 255 255 255
-6.85755 19.3771 -39.425 255 255 255
-9.09737 18.582 -37.8945 255 255 255
14.1527 24.9222 -50.9607 255 255 255
11.0897 9.57441 -26.9065 255 255 255
-12.6298 17.01 -35.2129 255 255 255
12.4994 8.39314 -25.7111 255 255 255
14.2681 24.7592 -51.3877 255 255 255
1.21944 21.5176 -44.8233 255 255 255
7.74627 22.9796 -47.9673 255 255 255
12.9497 6.65011 -23.1299 255 255 255
11.3449 12.4761 -32.0025 255 255 255
0.220842 21.1416 -44.3465 255 255 255
0.516366 21.2623 -44.6819 255 255 255
0.521084 21.202 -44.6094 255 255 255
-9.39161 17.9934 -38.1409 255 255 255
-9.36421 17.996 -38.3258 255 255 255
-9.37396 18.2126 -38.756 255 255 255
-9.11869 18.1191 -38.5181 255 255 255
-10.8335 17.4017 -37.1594 255 255 255
23.952 28.7905 -60.7743 255 255 255
-3.59722 19.7015 -42.0976 255 255 255
23.3846 29.182 -61.7217 255 255 255
11.7749 13.1058 -33.9775 255 255 255
-9.75581 17.745 -38.6602 255 255 255
19.7151 25.1375 -55.0423 255 255 255
10.7349 24.1627 -52.6998 255 255 255
13.1506 8.13768 -27.0727 255 255 255
8.86605 23.411 -51.6421 255 255 255
12.2139 7.38794 -25.8108 255 255 255
-9.7418 17.1911 -38.4385 255 255 255
21.9863 27.3897 -61.5692 255 255 255
13.2143 7.7757 -27.023 255 255 255
-4.78848 19.1517 -42.8923 255 255 255
-4.78848 19.1517 -42.8923 255 255 255
11.9137 23.2513 -53.5263 255 255 255
12.3922 11.5105 -34.0098 255 255 255
12.4635 11.6526 -34.2054 255 255 255
11.6466 8.43464 -28.5752 255 255 255
12.0399 8.69314 -29.1008 255 255 255
-4.2818 18.4262 -42.8196 255 255 255
12.6422 6.95741 -26.5882 255 255 255
-6.70089 17.4819 -41.0035 255 255 255
8.09407 21.2476 -50.8832 255 255 255
6.89727 22.563 -52.9538 255 255 255
0.777317 19.6816 -46.9173 255 255 255
-4.27129 17.924 -43.0453 255 255 255
13.2269 5.8601 -25.429 255 255 255
-9.93832 16.4361 -39.2975 255 255 255
-0.825395 18.984 -46.1043 255 255 255
5.71962 20.8857 -50.996 255 255 255
13.3181 5.20278 -24.8258 255 255 255
5.15007 21.0307 -51.4518 255 255 255
11.9144 8.16461 -29.6744 255 255 255
-9.40888 16.3347 -40.3338 255 255 255
-9.36587 16.1982 -40.105 255 255 255
-9.30591 16.0934 -39.9851 255 255 255
-9.45389 16.4151 -40.1594 255 255 255
-6.27679 17.1429 -42.6089 255 255 255
10.4346 22.1161 -54.7245 255 255 255
-10.6083 15.8247 -38.882 255 255 255
11.0186 7.04078 -27.435 255 255 255
13.7153 23.3243 -57.8428 255 255 255
-5.37101 17.1524 -42.9126 255 255 255
13.9876 10.7828 -35.2485 255 255 255
0.853095 19.2423 -48.1793 255 255 255
13.1253 9.31149 -32.6535 255 255 255
13.0027 8.87521 -31.8691 255 255 255
-4.12144 17.4393 -44.255 255 255 255
-4.76557 17.1794 -43.8228 255 255 255
13.1918 5.56411 -26.4795 255 255 255
12.4811 7.23518 -29.2651 255 255 255
13.0574 8.8551 -32.4467 255 255 255
12.961 8.84417 -32.2976 255 255 255
13.0218 6.17321 -27.5517 255 255 255
-12.4462 15.0153 -38.4669 255 255 255
-9.6651 15.6476 -40.9827 255 255 255
12.7751 10.6672 -36.8241 255 255 255
13.6395 4.99182 -26.5337 255 255 255
13.7286 9.26021 -34.9288 255 255 255
-6.21078 16.0758 -43.006 255 255 255
13.4817 9.48331 -35.5034 255 255 255
13.4817 9.48331 -35.5034 255 255 255
-4.15965 16.2333 -44.2529 255 255 255
13.4287 9.82285 -36.4505 255 255 255
13.3267 8.86724 -34.4741 255 255 255
-9.70655 15.1289 -41.0804 255 255 255
-3.17782 17.0292 -46.4008 255 255 255
13.2582 8.58586 -34.0627 255 255 255
0.665332 17.6004 -48.6459 255 255 255
2.49447 18.0506 -50.1767 255 255 255
12.2514 7.65408 -32.0284 255 255 255
-5.25888 16.1342 -44.6852 255 255 255
8.16099 19.1179 -53.7214 255 255 255
14.9279 19.4855 -55.8366 255 255 255
-12.1922 14.2641 -39.1073 255 255 255
13.2837 8.14044 -33.7849 255 255 255
13.9174 8.25771 -34.2913 255 255 255
13.3125 8.04435 -33.5323 255 255 255
-5.07794 16.2275 -45.4117 255 255 255
-4.00255 16.1548 -45.7202 255 255 255
-6.86933 15.5933 -44.0355 255 255 255
12.407 5.0953 -28.0231 255 255 255
-2.35752 16.2873 -46.852 255 255 255
13.1421 7.61931 -33.2943 255 255 255
13.4742 4.0193 -26.5849 255 255 255
4.20074 17.6474 -51.7812 255 255 255
-2.91081 15.9222 -46.3476 255 255 255
12.5948 4.56315 -27.5439 255 255 255
-7.02108 15.241 -44.119 255 255 255
5.72195 0.153103 -16.6641 255 255 255
5.72195 0.153103 -16.6641 255 255 255
14.0772 2.94331 -24.8616 255 255 255
2.63892 3.70236 -23.233 255 255 255
-0.307395 16.1143 -49.3905 255 255 255
-0.24221 16.4937 -50.1408 255 255 255
-9.35676 14.2932 -43.0406 255 255 255
-0.684006 16.3329 -49.5966 255 255 255
-6.44778 14.5489 -44.7961 255 255 255
-12.2808 13.2866 -40.4391 255 255 255
-10.0986 13.9942 -42.516 255 255 255
14.4796 1.14999 -22.3976 255 255 255
-11.0456 13.5128 -41.3711 255 255 255
13.4238 3.24349 -26.7738 255 255 255
0.594178 2.52832 -21.3849 255 255 255
-0.396922 3.11712 -22.6915 255 255 255
13.3846 3.42994 -27.9178 255 255 255
-13.0588 12.9069 -40.4748 255 255 255
-3.34615 15.1123 -48.3066 255 255 255
-12.1074 13.0106 -40.975 255 255 255
-6.99934 14.0085 -45.2451 255 255 255
0.409055 2.34681 -21.4005 255 255 255
2.10227 1.70162 -20.4252 255 255 255
-10.7126 13.2634 -42.3969 255 255 255
-0.0144344 2.45781 -21.7332 255 255 255
13.0148 3.19543 -28.3847 255 255 255
-10.5474 12.7715 -42.3493 255 255 255
12.696 3.79223 -29.6929 255 255 255
0.475779 15.2791 -52.0354 255 255 255
-1.23598 3.19584 -23.8951 255 255 255
-0.258481 14.7692 -51.5127 255 255 255
13.5418 2.19051 -27.1955 255 255 255
-0.852835 2.40425 -22.3667 255 255 255
0.68912 1.40661 -20.6689 255 255 255
1.85008 1.01786 -20.1423 255 255 255
4.89531 -1.75634 -14.949 255 255 255
2.13312 0.965602 -20.3938 255 255 255
1.04971 1.00676 -20.281 255 255 255
-6.48077 13.0862 -46.9226 255 255 255
-1.13624 2.24631 -22.5171 255 255 255
-1.10719 2.19286 -22.4371 255 255 255
12.7555 3.28861 -30.5127 255 255 255
5.68856 -1.33158 -16.7216 255 255 255
-6.72629 13.278 -47.3751 255 255 255
14.259 1.341 -26.8187 255 255 255
4.96832 11.5332 -48.3543 255 255 255
12.8904 2.82712 -30.3725 255 255 255
-5.31008 12.9529 -48.6737 255 255 255
0.956081 0.613185 -20.2078 255 255 255
-0.167431 1.04287 -20.8195 255 255 255
-1.09064 1.42797 -21.9363 255 255 255
13.3322 2.21744 -30.2626 255 255 255
-5.84914 12.6881 -49.0274 255 255 255
12.9967 2.57037 -31.0791 255 255 255
-1.82675 2.14601 -23.6826 255 255 255
-0.0343327 0.72553 -20.8445 255 255 255
13.6926 1.26789 -28.291 255 255 255
-0.453465 0.761964 -20.9978 255 255 255
-1.77525 1.76228 -23.1881 255 255 255
3.44015 -0.281579 -20.2834 255 255 255
5.36795 -2.33751 -15.9123 255 255 255
5.36795 -2.33751 -15.9123 255 255 255
1.55571 0.0128458 -20.2539 255 255 255
1.50759 0.0322551 -20.2608 255 255 255
-6.72841 11.888 -48.4057 255 255 255
7.09365 -0.006616 -23.0985 255 255 255
-1.85886 1.48363 -23.0988 255 255 255
-1.80627 1.49586 -23.185 255 255 255
14.2829 -0.0214348 -27.6579 255 255 255
14.2271 -0.167274 -27.4634 255 255 255
-3.27427 2.57872 -26.8227 255 255 255
11.3416 -0.909105 -25.0009 255 255 255
11.3416 -0.909105 -25.0009 255 255 255
5.48296 -3.00782 -16.2476 255 255 255
14.7281 -1.4227 -26.6478 255 255 255
14.2329 -0.774593 -28.416 255 255 255
14.626 -1.48448 -27.1058 255 255 255
14.1849 -0.457179 -29.9945 255 255 255
-3.29437 1.31186 -25.2552 255 255 255
5.93687 -2.86754 -18.0711 255 255 255
-2.74191 0.6499 -23.7056 255 255 255
0.204705 -0.870148 -20.7746 255 255 255
14.195 -0.649639 -30.729 255 255 255
4.15856 -1.93627 -20.7281 255 255 255
6.20546 -3.21732 -18.734 255 255 255
14.182 -1.21296 -30.5391 255 255 255
-3.88803 0.187979 -23.7389 255 255 255
-3.65212 -0.263691 -23.1462 255 255 255
6.26729 -3.64041 -18.9567 255 255 255
-1.30502 -1.33456 -21.313 255 255 255
0.934015 -2.09914 -20.2956 255 255 255
0.966256 -2.15844 -20.2084 255 255 255
-3.38838 -0.604704 -22.7012 255 255 255
15.1457 -3.05158 -27.7706 255 255 255
3.18626 -2.88963 -19.552 255 255 255
15.2808 -3.53159 -27.1876 255 255 255
15.4187 -3.46199 -27.2148 255 255 255
-0.526099 -1.86577 -20.7495 255 255 255
15.2191 -3.871 -26.179 255 255 255
3.20355 -3.12536 -19.6953 255 255 255
-2.91005 -1.30421 -21.7972 255 255 255
-3.12602 -1.2551 -22.0565 255 255 255
-2.94149 -1.44641 -21.525 255 255 255
-2.37366 -1.61545 -21.4999 255 255 255
-2.05645 -1.83196 -21.1923 255 255 255
-6.48562 2.88317 -36.3914 255 255 255
-1.93128 -1.92868 -20.9744 255 255 255
-2.45339 -1.75891 -21.6306 255 255 255
-1.43851 -2.23705 -20.4462 255 255 255
14.9865 -4.46624 -26.2925 255 255 255
-3.78208 -0.869949 -24.1849 255 255 255
-0.534216 -2.59375 -20.2412 255 255 255
1.85871 -3.18601 -19.8914 255 255 255
3.99039 -3.54316 -20.7722 255 255 255
4.41616 -3.53875 -21.2327 255 255 255
-2.63886 -1.92009 -21.9431 255 255 255
0.110736 -2.88529 -19.9183 255 255 255
14.0893 -4.91807 -25.7141 255 255 255
2.67836 -3.46943 -20.1056 255 255 255
-1.8351 -2.36333 -21.2185 255 255 255
-5.73777 0.944058 -33.8251 255 255 255
-8.37915 1.42843 -34.4621 255 255 255
-3.01658 -2.33738 -22.0406 255 255 255
-2.00278 -2.64342 -21.7732 255 255 255
-0.862363 -3.31233 -21.012 255 255 255
0.146518 -3.59368 -20.7551 255 255 255
1.8345 -4.08436 -20.814 255 255 255
4.18375 -4.51068 -21.9508 255 255 255
-6.3776 -0.0668705 -32.4285 255 255 255
-10.3901 1.01274 -33.6888 255 255 255
-2.07493 -3.15012 -22.0946 255 255 255
-3.56243 -2.44468 -24.5476 255 255 255
-3.20204 -2.59144 -23.9732 255 255 255
-3.46813 -2.58577 -24.1416 255 255 255
0.70332 -4.14034 -20.7702 255 255 255
1.49291 -4.36817 -21.0118 255 255 255
-0.0393617 -3.85876 -20.8496 255 255 255
-0.764095 -3.78109 -21.4155 255 255 255
-7.33902 -0.788566 -31.06 255 255 255
2.87887 -4.969 -21.5531 255 255 255
-2.58898 -3.45351 -23.521 255 255 255
-10.9867 -0.126785 -32.2374 255 255 255
-2.17751 -3.80167 -23.0982 255 255 255
-0.0866466 -4.55368 -21.6816 255 255 255
-2.01321 -3.87444 -22.6019 255 255 255
-8.29776 -1.59971 -30.4157 255 255 255
-8.10451 -1.80342 -30.0674 255 255 255
1.17756 -5.23167 -22.479 255 255 255
0.67984 -5.17341 -21.4364 255 255 255
0.536445 -5.31933 -21.185 255 255 255
-9.17555 -2.33103 -28.5267 255 255 255
-7.08168 -3.41144 -27.6966 255 255 255
-0.214877 -6.36306 -21.5055 255 255 255
-1.77824 -6.11601 -22.3667 255 255 255
2.21176 -8.19087 -21.0712 255 255 255
-5.64678 -6.58594 -23.0214 255 255 255
2.82398 -9.29758 -19.5597 255 255 255
1.25419 26.1659 -39.6657 255 255 255
0.520711 26.2796 -40.4757 255 255 255
1.18775 25.068 -40.5941 255 255 255
5.19288 26.5774 -43.11 255 255 255
15.3038 30.0373 -47.9549 255 255 255
12.9913 29.5946 -47.5528 255 255 255
12.9913 29.5946 -47.5528 255 255 255
11.3465 11.6936 -24.4992 255 255 255
3.45746 25.797 -42.4036 255 255 255
4.10296 26.0093 -42.6559 255 255 255
4.12619 26.0564 -42.693 255 255 255
1.03921 25.0431 -41.3254 255 255 255
-0.666987 24.1393 -40.155 255 255 255
12.6285 15.5754 -29.7144 255 255 255
15.7362 29.926 -48.9284 255 255 255
12.9519 14.7369 -29.0716 255 255 255
-10.6899 19.9404 -34.1519 255 255 255
-6.5026 21.7388 -37.0617 255 255 255
16.7171 30.327 -50.4948 255 255 255
9.36187 8.04235 -20.2311 255 255 255
-11.925 19.6016 -33.9612 255 255 255
-9.22193 20.738 -35.8398 255 255 255
-8.7353 20.9587 -36.0368 255 255 255
-8.76114 20.6263 -35.5529 255 255 255
12.9488 14.5708 -29.2813 255 255 255
-8.54891 20.6939 -35.8298 255 255 255
-5.79406 21.7205 -37.6004 255 255 255
1.54836 24.44 -42.0626 255 255 255
2.5684 24.7792 -42.6269 255 255 255
12.3433 13.947 -28.7634 255 255 255
-8.39008 20.7514 -36.2314 255 255 255
-9.3359 20.4564 -36.0558 255 255 255
1.98387 24.349 -42.4608 255 255 255
3.27699 24.7427 -43.2055 255 255 255
-10.4884 19.6128 -34.7687 255 255 255
1.69365 24.1777 -42.4267 255 255 255
-11.2165 19.3844 -34.6343 255 255 255
3.37556 24.7283 -43.6454 255 255 255
3.36077 24.8148 -43.6768 255 255 255
-9.46716 19.8748 -35.4824 255 255 255
-10.3379 19.8344 -35.6237 255 255 255
-11.2061 19.1472 -34.6591 255 255 255
-11.2061 19.1472 -34.6591 255 255 255
14.5865 27.6001 -49.072 255 255 255
5.58525 5.42412 -17.4188 255 255 255
-8.7784 20.0627 -36.7166 255 255 255
-8.68453 23.6374 -41.8909 255 255 255
-4.9728 21.3585 -39.3075 255 255 255
-11.2071 18.943 -35.4306 255 255 255
12.0609 26.5738 -48.9724 255 255 255
11.3512 25.6036 -47.5248 255 255 255
4.62346 24.9626 -46.0514 255 255 255
4.32458 24.2856 -45.1422 255 255 255
12.7902 12.0553 -28.46 255 255 255
9.46092 25.5614 -48.208 255 255 255
9.27604 8.51916 -23.2237 255 255 255
9.27604 8.51916 -23.2237 255 255 255
5.37341 3.91533 -16.2467 255 255 255
-11.3399 18.2699 -35.3151 255 255 255
-1.83626 21.6748 -41.8244 255 255 255
-1.83115 21.6533 -41.7812 255 255 255
12.8014 27.9201 -52.9158 255 255 255
-0.209198 22.1035 -42.9332 255 255 255
-0.209198 22.1035 -42.9332 255 255 255
-2.1015 21.3616 -41.867 255 255 255
-2.12876 21.2633 -41.7038 255 255 255
-2.10783 21.2428 -41.7384 255 255 255
12.811 9.09503 -25.3749 255 255 255
9.12716 6.91281 -21.5624 255 255 255
-6.13044 19.7571 -39.2518 255 255 255
-8.81884 18.6391 -37.3489 255 255 255
-12.7538 17.2782 -34.8093 255 255 255
-4.48797 20.286 -40.4892 255 255 255
-4.35652 20.1347 -40.7267 255 255 255
10.9622 8.92787 -25.4894 255 255 255
12.3872 8.12505 -24.8947 255 255 255
12.3872 8.12505 -24.8947 255 255 255
-8.13974 17.6845 -36.9452 255 255 255
-8.81956 18.55 -38.6649 255 255 255
8.20736 25.1399 -51.6717 255 255 255
7.60827 24.1734 -50.0479 255 255 255
7.4072 23.9039 -49.4497 255 255 255
12.7166 8.03113 -25.4222 255 255 255
-10.4611 18.1526 -38.1251 255 255 255
18.3994 26.43 -55.222 255 255 255
18.5786 24.2805 -52.1365 255 255 255
-12.8915 16.8303 -35.5358 255 255 255
-13.3588 16.6891 -35.4334 255 255 255
-13.3588 16.6891 -35.4334 255 255 255
-2.95545 20.0633 -42.845 255 255 255
11.7467 10.0614 -28.8258 255 255 255
-10.6224 17.4977 -37.6875 255 255 255
-11.2312 17.1185 -37.1438 255 255 255
-10.0495 17.7206 -38.6046 255 255 255
-11.992 16.6568 -36.2934 255 255 255
0.189867 20.6075 -45.0608 255 255 255
-11.5148 16.6931 -36.8634 255 255 255
9.84398 22.5857 -50.897 255 255 255
-11.595 16.5891 -37.1216 255 255 255
13.2816 6.39391 -24.777 255 255 255
12.2483 11.4716 -33.0218 255 255 255
11.9292 11.2647 -32.5337 255 255 255
0.694997 20.0883 -45.8005 255 255 255
19.0504 24.8536 -56.8726 255 255 255
23.4744 27.0918 -62.2322 255 255 255
18.833 23.5848 -55.3426 255 255 255
12.6356 10.9911 -33.3326 255 255 255
11.4113 7.8217 -27.507 255 255 255
12.0417 6.29975 -25.277 255 255 255
12.5154 11.2972 -34.2649 255 255 255
12.8769 10.9579 -33.5384 255 255 255
1.55899 18.9868 -47.0509 255 255 255
1.11675 18.8733 -47.3767 255 255 255
13.9753 3.13774 -21.7456 255 255 255
6.62719 20.4864 -52.2004 255 255 255
6.36553 20.527 -52.3951 255 255 255
6.27813 19.7407 -51.4996 255 255 255
12.1153 6.22644 -27.5108 255 255 255
11.916 5.25246 -25.956 255 255 255
12.1204 7.0477 -30.3974 255 255 255
-12.1125 12.8628 -35.837 255 255 255
-2.31986 16.0946 -44.9381 255 255 255
11.8648 19.9346 -56.1768 255 255 255
-11.8111 14.5048 -39.4884 255 255 255
10.8041 19.6931 -55.7944 255 255 255
12.5696 8.26374 -33.5213 255 255 255
12.7581 4.73269 -26.8288 255 255 255
14.4733 2.03707 -22.4313 255 255 255
